# .PCD v0.7 - Point Cloud Data file format
VERSION 0.7
FIELDS x y z intensity
SIZE 4 4 4 4
TYPE F F F F
COUNT 1 1 1 1
WIDTH 1368
HEIGHT 1
VIEWPOINT 0 0 0 1 0 0 0
POINTS 1368
DATA ascii
25.10775 6.4401011 -28.663536 11
25.295502 6.8964062 -28.692087 15
25.129011 7.0478573 -28.735209 15
25.11816 11.685627 -28.666697 15
25.089142 7.6176043 -28.450432 9
25.396078 1.6832011 -28.356047 0
25.045036 3.8656838 -28.292202 4
25.062159 4.1594596 -28.399227 3
25.086065 4.4967341 -28.356968 3
25.048601 4.8065958 -28.244719 7
25.168423 6.0519004 -28.215698 13
25.594984 1.1996508 -28.040627 1
25.443888 3.5573316 -28.185768 5
25.037752 4.1380877 -28.175049 3
25.046246 4.5126748 -28.085827 3
25.175634 5.3895478 -28.079561 11
25.159071 6.2648735 -28.000162 13
25.161268 7.1385779 -28.094954 15
25.56942 2.0431693 -27.968348 3
25.337433 2.7207131 -27.889563 3
25.455576 2.8536453 -27.820875 3.5
25.541098 3.7499254 -27.808439 7
25.484289 3.1283364 -27.756334 5
25.437006 3.8094981 -27.777384 5
25.016193 4.1032877 -27.627323 5
25.125395 5.9053946 -27.782927 11
25.439816 2.8317933 -27.596132 2
25.488052 3.8327127 -27.559889 5
25.094988 4.9898157 -27.464211 9
25.100399 5.2510233 -27.558981 11
25.107944 5.439991 -27.467161 11
25.059578 5.6021943 -27.484131 9
25.066605 6.0507717 -27.45887 11
25.066221 6.9009409 -27.477386 13
25.095791 8.5510807 -27.405401 12
25.026718 6.6364493 -27.390675 11
25.096603 7.217144 -27.392378 15
25.032242 7.7040443 -27.258591 13
25.418972 1.223285 -27.010536 1
25.036507 4.9427056 -27.102201 7
25.285906 2.2221971 -26.973129 3
25.201206 2.7814367 -26.883543 3
25.264645 2.8756602 -26.935059 5
25.222561 3.1635211 -26.901667 5
25.241405 3.684973 -26.94009 6.5
31.824287 2.5690348 -26.725847 3
25.331072 2.8953886 -26.634768 2
25.139654 0.38738412 -26.270241 14
25.161156 1.236974 -26.28462 1
25.19998 2.918757 -26.245153 2
25.150482 2.0958221 -26.195999 3
25.111403 2.2503462 -26.143229 3
25.24102 2.8682435 -26.197475 5
25.257172 3.7234097 -26.102615 6
25.145411 3.8299489 -26.11174 7
25.018147 5.7169766 -25.696365 13
25.655258 18.494349 -25.474585 13
25.617437 18.509153 -25.206015 13
-128.93886 -0.57442939 -24.888922 10
-128.44646 -0.57234323 -24.982933 10
-140.54721 -0.364999 -24.819462 11
-151.45494 2.650784 -24.958168 3
-139.70659 6.694387 -24.959965 5
-138.82069 7.1025405 -24.984259 13
-140.08804 7.2277951 -24.981569 13
-138.68336 7.3986297 -24.913868 11
-136.65938 -0.92316675 -24.694754 12
-141.13261 -0.46651673 -24.604836 12
-129.23985 -0.56579959 -24.618299 10
-143.37782 -0.35958931 -24.616411 12
-141.64828 -0.37724429 -24.72261 12
-147.56215 2.7752671 -24.685713 5
-147.26564 2.7575309 -24.716196 5
-138.0063 2.8265893 -24.791946 7
-139.96883 6.9778843 -24.723087 15
-136.80341 -1.2218623 -24.454609 12
-136.82861 -0.91909051 -24.512741 12
-142.18423 -0.40582556 -24.556528 12
-129.56531 -0.57007492 -24.587431 10
-144.0235 -0.38093612 -24.445421 12
-142.43518 -0.39213434 -24.481941 12
-142.2912 -0.38627717 -24.554033 12
-141.85063 -0.38919234 -24.472738 12
-141.16034 -0.3817119 -24.592255 12
-140.63528 -0.36246729 -24.540705 11
-150.25638 7.1221695 -24.585587 9
-149.91309 7.0814104 -24.543192 9
-137.00037 -1.2150381 -24.257105 12
-137.22571 -0.78694332 -24.219564 12
-142.81419 -0.40783742 -24.219219 12
-142.61702 -0.41352445 -24.239674 12
-137.17087 -0.53771847 -24.219149 12
-142.1745 -0.3813636 -24.32662 12
-138.19348 -0.33304578 -24.247431 12
-138.2256 1.0978268 -24.260962 1
-138.21039 1.7606976 -24.223524 3
-138.19182 1.7946128 -24.204306 1
-138.35609 2.7716868 -24.365252 5
-147.08708 2.955138 -24.359257 5
-135.41733 4.2963657 -24.262693 13
-135.15392 4.2661715 -24.285875 13
-134.92783 4.4934368 -24.376101 9
-150.24388 7.0837588 -24.358498 9
-137.18163 -1.2076346 -24.032635 12
-137.15228 -0.91076958 -24.136791 12
-137.37355 -0.78306139 -24.033417 12
-145.11937 -0.41882196 -24.09734 12
-140.73756 -0.49676657 -24.136898 12
-139.24455 -0.56907535 -24.037525 12
-137.30902 -0.476345 -24.177847 12
-144.08286 -0.38208845 -24.131426 12
-142.54916 -0.39974809 -24.149929 12
-138.26344 -0.24443693 -24.060789 12
-138.02583 -0.33896351 -24.164686 12
-138.25586 0.4309659 -24.161655 14
-138.2744 0.69469339 -24.144918 14
-138.39417 2.1451621 -24.137636 5
-138.16548 2.7429328 -24.18417 5
-137.37386 -1.200461 -23.81811 12
-137.30789 -0.90669954 -23.950851 12
-137.52469 -0.77860594 -23.817724 12
-143.21268 -0.42497256 -23.853806 12
-143.1638 -0.41751686 -23.907423 12
-137.798 -0.53851378 -23.858145 12
-135.56735 4.1433668 -23.918558 11
-135.73405 4.253005 -23.865788 13
-143.22809 4.4836698 -23.961668 2
-137.56847 -1.1940439 -23.630733 12
-145.59804 -0.43590543 -23.710562 12
-143.85901 -0.45333681 -23.603832 12
-141.403 -0.48418039 -23.753559 12
-138.84015 -0.46093071 -23.66523 12
-138.59705 -0.45722884 -23.641863 12
-137.88626 -0.46954268 -23.600266 12
-139.91029 4.3122764 -23.707161 9
-137.91646 -0.62155664 -23.563627 12
-146.42493 -0.46693847 -23.523981 12
-144.14627 -0.42919511 -23.598476 12
-141.96159 -0.50716698 -23.408791 12
-141.26268 -0.49710006 -23.567907 12
-139.80588 -0.56763291 -23.516518 12
-138.68298 -0.50066149 -23.481277 12
-139.96347 4.1679258 -23.516941 11
-140.04541 4.5593195 -23.524633 11
-134.82278 4.5804777 -23.4153 13
-135.44545 4.6570926 -23.451902 13
-155.77516 8.5555515 -23.440084 13
-130.54842 -0.63472521 -23.367062 10
-140.55243 -0.57996428 -23.36722 12
-138.52463 -0.53777766 -23.318935 12
-135.10847 4.5639415 -23.218662 13
-136.62872 6.5387211 -23.290346 9
-136.58652 6.8947334 -23.256599 11
-156.6172 9.0849648 -23.309786 13
-143.96637 -0.45949057 -23.082256 12
-141.90739 -0.51385176 -23.091394 12
-138.35129 -0.53003395 -23.136009 12
-138.55382 4.2802634 -23.005514 11
-135.05222 4.5269513 -23.199009 11
-134.77789 4.5785646 -23.148636 9
-134.78262 4.7099543 -23.106232 7
-139.17438 5.8734798 -23.088861 4
-137.06104 6.8664503 -23.199007 15
-140.0733 -0.76156509 -22.871843 12
-142.39214 -0.50878251 -22.952976 12
-135.61673 4.5305724 -22.834398 13
-134.73241 4.8947906 -22.992258 5
-135.54845 5.1316524 -22.812794 15
-140.18674 5.4079208 -22.866865 5
-143.02968 -0.51722175 -22.660507 12
-141.57892 -0.590177 -22.775974 12
-135.90779 4.5091696 -22.680321 12
-135.74573 4.5503464 -22.642063 15
-135.54787 4.4710355 -22.615437 13
-135.9415 6.1651635 -22.672939 9
-141.11679 -0.77506548 -22.564548 12
-144.49831 -0.48600999 -22.423544 12
-133.41447 -0.59180963 -22.546148 10
-143.36446 3.7715018 -22.420391 9
-137.27719 4.0145054 -22.482508 5
-137.68544 4.2736678 -22.50864 13
-139.5775 4.5891113 -22.465061 13
-136.3004 4.5376868 -22.50559 13
-136.17966 4.4769149 -22.52047 11
-139.83 4.6543221 -22.579649 13
-139.85242 4.8346229 -22.463518 9
-137.7708 5.3826404 -22.494715 15
-136.06523 6.2792411 -22.555141 13
-139.25308 -0.73413795 -22.345001 12
-135.8412 3.9248433 -22.240091 13
-136.81306 4.076303 -22.229391 13
-136.35703 4.4474182 -22.302521 11
-139.65695 4.7888055 -22.296211 9
-136.81615 4.6469874 -22.21438 15
-136.69934 4.6318469 -22.244879 15
-136.04816 4.8354459 -22.320301 5
-135.28502 4.9090075 -22.224045 3
-136.99109 5.6633749 -22.218153 9
-137.04626 5.8026743 -22.253601 13
-142.47107 -0.55128127 -22.147444 12
-141.99915 -0.58522582 -22.066233 12
-133.88167 -0.59298325 -22.084036 10
-133.54526 -0.58724689 -22.167759 10
-143.77353 3.7926497 -22.15267 9
-136.58157 4.0096865 -22.081726 13
-135.76025 4.1231775 -22.061422 9
-136.27438 4.3788509 -22.010681 11
-137.02777 4.6506782 -22.049532 15
-136.11676 4.8043432 -22.061913 5
-135.87991 4.8585949 -22.120964 4
-135.66452 4.9829206 -22.098923 14
-143.09949 5.0119505 -22.103485 5
-135.6264 5.1098862 -22.119677 7
-135.47818 5.1892457 -22.165125 3
-145.57314 -0.45028216 -21.882513 12
-144.55634 -0.49138895 -21.894314 12
-143.65262 -0.51929921 -21.835577 12
-129.03986 -0.58123088 -21.900608 10
-128.70323 -0.57546687 -21.827091 10
-128.09851 -0.57521951 -21.861059 10
-126.50508 -0.57728958 -21.813215 10
-136.40451 4.1415553 -21.927641 9
-137.53691 4.2209668 -21.921036 9
-136.32373 4.3451567 -21.826702 11
-138.12236 4.555614 -21.872377 9
-136.62914 4.5243573 -21.832884 3
-136.34499 4.4236407 -21.979982 13
-136.18333 4.5748563 -21.922304 7
-143.29398 4.939949 -21.887674 7
-136.88448 4.8080564 -21.955404 5
-136.63795 4.9107194 -21.911572 11
-135.6591 4.8971162 -21.982044 3
-138.17857 5.1430116 -21.808271 7
-135.68646 5.0744185 -21.866421 7
-138.05725 5.2451048 -21.989336 5
-135.82584 5.2462978 -21.87216 11
-157.86455 6.243094 -21.873512 9
-157.61598 6.2078815 -21.870333 9
-145.54306 -0.47797418 -21.614826 12
-144.41478 -0.5353533 -21.796026 12
-134.15007 -0.59078228 -21.719189 10
-125.41042 -0.5843724 -21.729845 10
-168.86247 1.6276588 -21.700108 1
-136.92162 4.3823276 -21.726377 11
-137.0675 4.4623222 -21.717657 13
-136.97778 4.4534826 -21.718891 9
-137.37418 4.6441841 -21.708977 15
-138.37375 5.0327644 -21.737331 11
-138.13135 5.216186 -21.749569 5
-158.67232 6.327291 -21.60346 9
-145.42159 -0.55417067 -21.438301 12
-130.82585 -0.58332253 -21.523672 10
-146.24141 0.63737816 -21.488884 14
-146.28435 1.2249658 -21.428547 1
-168.88573 1.5814093 -21.596979 1
-167.73521 3.0598636 -21.452318 3
-142.40269 3.7990179 -21.419643 9
-143.32693 4.3937373 -21.543362 11
-167.78551 4.5836568 -21.58745 5
-143.74677 5.4903412 -21.427322 13
-141.60899 -0.75594103 -21.241173 12
-168.82129 0.1215276 -21.319664 14
-146.33463 0.40285504 -21.382635 14
-145.95641 2.0540242 -21.355301 3
-142.92242 3.7709236 -21.249886 5
-142.48303 3.9101753 -21.362642 7
-151.82648 4.6888728 -21.301449 7
-143.09125 4.6043835 -21.314669 11
-146.61411 -0.47938392 -21.046576 12
-145.39107 -0.53535366 -21.175154 12
-142.73036 3.7475123 -21.12155 5
-142.72807 3.8003864 -21.1429 9
-142.4324 3.8773415 -21.128992 7
-145.67867 6.736371 -21.170643 13
-127.99989 -0.64029664 -20.90126 8
-127.76138 -0.61787766 -20.910549 8
-145.62228 -0.4284358 -20.819233 12
-143.14003 -0.59185833 -20.889011 12
-142.87856 -0.5864073 -20.983431 12
-148.84422 3.0578613 -20.926449 5
-143.53281 3.615468 -20.882114 9
-143.78069 -0.60673994 -20.705643 12
-149.47972 -0.55562955 -20.762402 12
-149.08754 -0.58499622 -20.70966 12
-148.65683 -0.58460641 -20.66247 12
-146.48091 -0.46726662 -20.727575 12
-145.93001 -0.4518562 -20.68943 12
-146.03679 -0.84869552 -20.41758 12
-144.78993 -0.81519878 -20.422289 12
-150.5903 -0.68265772 -20.466902 12
-145.55542 -0.65591002 -20.427601 12
-147.50409 -0.59719044 -20.572012 12
-146.5121 -0.57451618 -20.447681 12
-146.35704 -0.58804011 -20.491768 12
-145.89453 -0.48389864 -20.588005 12
-145.63896 -0.53994584 -20.490583 12
-145.52789 -0.54723227 -20.530832 12
-168.93498 1.5622694 -20.481018 1
-151.9843 5.7477369 -20.545597 9
-150.87483 -0.66980678 -20.324415 12
-150.68568 -0.65781927 -20.324177 12
-168.8625 -0.0027188957 -20.39995 14
-148.92274 2.263674 -20.219324 3
-144.10115 3.4407446 -20.249132 7
-154.49434 4.227365 -20.272736 7
-133.71352 -0.58865666 -20.080223 10
-148.57291 0.16597134 -20.146204 14
-150.20763 1.2205849 -20.124334 1
-143.8819 2.6589065 -20.068853 3
-143.75697 2.7619255 -20.061075 3
-143.87798 3.0828097 -20.096035 7
-151.11765 4.1042237 -20.141335 5
-154.54102 4.4973073 -20.147882 7
-143.58897 5.3481402 -20.199568 11
-150.144 1.0232818 -19.953262 1
-143.71857 3.5426922 -19.972261 9
-151.89946 3.915647 -19.944561 7
-151.18141 4.1205473 -19.980841 7
-144.24843 4.5794134 -19.918299 11
-144.10512 4.5048146 -19.813122 9
-143.73135 5.1381478 -19.980476 7
-143.5407 5.2899408 -19.905693 11
-133.69333 -0.57410967 -19.766441 10
-148.50069 0.29536828 -19.781334 14
-143.35579 3.5954051 -19.734221 7
-143.14024 3.6973448 -19.737125 6
-143.0578 4.0203485 -19.710182 9
-144.06555 4.5157571 -19.69404 11
-144.11647 5.0445476 -19.793854 13
-144.77304 5.4155273 -19.650688 11
-126.48917 -0.60711628 -19.430948 6
-134.62442 -0.59855545 -19.528019 10
-143.90594 2.9151649 -19.595747 5
-143.90829 3.0345995 -19.560627 7
-144.62024 3.8281281 -19.414906 9
-142.97975 3.866987 -19.535746 5
-135.01024 -0.62197721 -19.274368 10
-126.68999 -0.62068844 -19.303146 6
-159.86272 2.3563852 -19.335884 1
-159.60451 2.3504264 -19.295095 1
-148.83553 2.2065794 -19.318487 3
-144.17674 3.0363715 -19.313215 7
-144.47713 3.652164 -19.388493 7
-144.36169 4.5137553 -19.321007 11
-159.16847 0.46058822 -19.12608 14
-158.90833 0.4627021 -19.09754 14
-158.64243 0.46470428 -19.062607 14
-158.37717 0.46664989 -19.026081 14
-148.65422 0.56414425 -19.104885 14
-159.09506 1.4244838 -19.113085 1
-148.82449 2.1725099 -19.109579 3
-156.60353 2.5290461 -19.085913 3
-156.31438 2.5133872 -19.053917 3
-144.3658 3.7573414 -19.104286 9
-144.34265 4.4743285 -19.089806 11
-143.82188 4.7678614 -19.00477 11
-146.84583 -0.61401999 -18.856485 12
-135.21803 -0.60079098 -18.972424 10
-156.01065 2.4956932 -18.998388 3
-155.71581 2.4793606 -18.958782 3
-155.3846 2.4694948 -18.965584 3
-154.59758 2.4179492 -18.814453 3
-144.35385 3.588001 -18.962629 5
-144.35542 3.7272656 -18.8605 9
-144.24474 3.8135884 -18.848042 5
-144.43275 4.464963 -18.878056 11
-144.36844 4.4077401 -18.933638 9
-143.96498 4.5938849 -18.830866 9
-154.32585 0.49946058 -18.636688 14
-148.80679 0.55126703 -18.613445 14
-153.80469 2.3009152 -18.684204 3
-153.47929 2.3699732 -18.703802 3
-153.25363 2.3583243 -18.673811 3
-153.04967 2.3331299 -18.60874 3
-144.26814 3.5572734 -18.743231 7
-125.93891 -0.63217658 -18.571428 4
-153.6963 0.1929432 -18.508121 14
-153.3969 0.19665988 -18.47489 14
-153.10522 0.20029548 -18.443243 14
-152.83202 0.20383778 -18.418581 14
-154.08386 0.50059867 -18.58399 14
-151.60188 2.1100371 -18.427841 3
-152.5654 2.3068709 -18.546656 3
-152.32573 2.2938132 -18.514448 3
-151.174 2.2526333 -18.410511 3
-149.56137 2.6610155 -18.403458 5
-144.75342 3.7323341 -18.436447 9
-144.6714 3.8007965 -18.534801 5
-146.33333 4.7975125 -18.426361 9
-144.17329 4.7488751 -18.542366 11
-146.56187 4.8373303 -18.526669 9
-146.87531 -0.62504447 -18.277563 12
-129.14716 -0.59437895 -18.343739 8
-152.35051 0.18268105 -18.387367 14
-152.71933 0.26795503 -18.398405 14
-152.48248 0.27031252 -18.369871 14
-148.70847 0.24328482 -18.322435 14
-151.32965 2.0954711 -18.396883 3
-151.06367 2.0809686 -18.361885 3
-150.82858 2.0684824 -18.336161 3
-150.33781 2.0422494 -18.278906 3
-150.06627 2.1984909 -18.294434 3
-149.68251 2.0083649 -18.219215 3
-149.03442 2.1560416 -18.314192 3
-151.01797 2.224412 -18.363731 3
-145.46312 2.6786799 -18.328634 3
-145.22508 2.7811313 -18.342897 5
-145.19995 2.8768499 -18.293301 5
-144.70941 4.6093888 -18.380039 9
-135.21384 -0.62217414 -18.105217 10
-148.87445 0.097599015 -18.16433 14
-149.05772 0.30506575 -18.028179 14
-149.03745 1.9748782 -18.156057 3
-149.27519 2.1346645 -18.190363 3
-148.96875 2.1465542 -18.186611 1
-146.26439 3.1400652 -18.076445 7
-145.87306 3.796927 -18.097816 7
-145.9308 3.8189595 -18.095543 5
-145.26205 4.4022264 -18.132931 9
-144.74936 5.1686878 -18.187592 11
-125.57166 -0.6567269 -17.989773 2
-149.11292 1.7565492 -17.978174 3
-148.87953 1.7456747 -17.969925 3
-148.59682 1.7316166 -17.944496 3
-145.87231 3.8246777 -17.869196 9
-145.24591 4.4812622 -17.947485 11
-146.84181 -0.63232315 -17.761362 12
-135.21738 -0.61835986 -17.640448 10
-125.05579 -0.64920044 -17.68568 0
-129.17671 -0.59534818 -17.782038 10
-128.86386 -0.58895338 -17.684656 10
-127.19923 -0.58335102 -17.497478 10
-125.04346 -0.605084 -17.322447 10
-146.91228 -0.65460736 -17.039772 12
-149.8815 -0.66136253 -16.688875 12
-149.70844 -0.65692282 -16.420294 12
-136.58826 -0.58441687 -16.566128 10
-150.173 -0.65012544 -16.299395 12
-149.51332 -0.65032279 -16.234068 12
-136.68712 -0.57617593 -16.098206 10
-147.02737 -0.64758176 -15.990688 12
-132.18011 -0.62749869 -15.819935 8
-125.43986 -0.60322547 -15.851152 6
-126.1478 -0.59184134 -15.884814 6
-127.67109 -0.57165301 -15.673388 6
-149.7092 -0.66930115 -15.586687 12
-133.90419 -0.56245416 -15.436394 10
-150.50615 -0.67130643 -15.153835 12
-149.75046 -0.68138623 -14.962551 12
-147.19318 -0.64330256 -14.824754 12
-150.60577 -0.67973828 -14.61152 12
-130.63574 -0.63451552 -14.773468 6
-148.52892 -0.69481534 -14.539183 12
-129.70741 -0.65164655 -14.279089 4
-129.56557 -0.62906474 -14.306262 4
-150.6087 -0.68489015 -14.014529 12
-149.75557 -0.69543016 -14.17624 12
-148.67146 -0.69695073 -13.899877 12
-137.65541 -0.58710659 -13.980276 10
-149.72263 -0.70390046 -13.640538 12
-129.34177 -0.63901401 -13.633955 10
-129.0952 -0.65790522 -13.758421 2
-128.44949 -0.63941032 -13.628375 0
-125.48753 -0.66815162 -13.634219 10
-136.91174 -0.57119131 -13.516482 10
-130.51569 -0.62785041 -13.297504 10
-137.05389 -0.58457708 -13.248776 10
-150.87756 -0.70632732 -13.08044 12
-149.65239 -0.71287608 -13.016853 12
-127.81494 -0.58869743 -12.836233 6
-147.76347 4.6131763 -12.686362 11
-129.37122 -0.59187615 -12.576531 6
-134.02538 -0.60384166 -12.085095 8
-141.50227 3.9939897 -11.809482 11
-147.86368 4.5600657 -11.943907 11
-138.13077 5.2600679 -11.876377 13
-134.01308 -0.61533916 -11.620552 10
-141.37325 3.9452384 -11.61514 11
-125.11331 -0.65522629 -11.44173 10
-132.07433 -0.57073033 -11.496895 6
-141.63341 3.9192815 -11.499012 13
-138.50697 5.8691463 -11.554818 13
-126.25924 -0.62833816 -11.291846 10
-125.9182 -0.6357556 -11.338953 10
-132.17776 -0.58083844 -11.262529 6
-125.3392 0.13186231 -11.262357 8
-142.09431 4.0013471 -11.254211 11
-138.70589 5.884552 -11.350782 14
-129.57924 -0.6042226 -11.124161 10
-125.62609 0.24570735 -11.139175 6
-141.87352 3.953156 -11.157353 11
-141.70366 3.8901634 -11.133447 13
-140.99654 4.2626877 -11.072755 15
-138.27083 5.4034553 -11.112574 9
-131.33061 -0.61809313 -10.97775 4
-141.59222 4.3778396 -10.807161 15
-141.02367 4.2286325 -10.76475 15
-138.49434 5.2416916 -10.637564 11
-130.66254 -0.62416089 -10.5097 2
-130.11584 -0.63190174 -10.50657 0
-147.01057 -0.61447865 -10.364502 12
-133.61897 -0.61614943 -10.014054 10
-149.26738 1.223897 -10.004163 1
-139.06439 3.9253864 -10.15845 13
-139.07439 4.0197954 -10.047761 15
-138.97879 4.2757545 -10.012021 11
-138.67184 4.3311982 -10.061349 12
-149.39247 1.863256 -9.853754 1
-139.32452 3.9373529 -9.9709702 13
-139.42274 4.061779 -9.8277617 15
-138.45094 4.3240976 -9.9951086 15
-139.57973 4.5203199 -9.8379211 15
-139.06281 4.4210339 -9.871809 15
-147.93439 4.6040759 -9.8486128 11
-134.35059 -0.62382549 -9.6952829 10
-139.84476 4.3378124 -9.7803564 11
-138.50507 5.4500952 -9.7047691 14
-146.94427 -0.6115455 -9.5015373 12
-126.74136 -0.61136836 -9.5464621 6
-128.3517 -0.59478039 -9.5878162 6
-125.27077 -0.6485011 -9.2371979 6
-147.41042 -0.59457082 -9.2282305 12
-141.18105 3.3199058 -9.3535318 11
-154.61137 3.5491874 -9.2836943 5
-141.26866 2.7322276 -9.0988684 3
-138.53621 4.9191561 -9.0066996 11
-138.73283 5.3191409 -9.0962229 13
-135.54388 -0.63635486 -8.981988 10
-140.88139 3.7010615 -8.9576941 5
-139.01241 4.1381397 -8.8019323 9
-139.18369 4.271091 -8.9866533 15
-138.51302 5.0155296 -8.9528399 9
-138.75706 5.3280973 -8.9914417 15
-131.1429 -0.60119754 -8.6789713 6
-147.01881 -0.58501303 -8.6675911 12
-141.72522 -0.35766435 -8.6064434 12
-141.76971 1.2998044 -8.6016893 3
-141.82822 1.8799031 -8.764411 5
-141.78084 2.6158917 -8.6885462 9
-139.01187 4.1718736 -8.6590662 15
-154.74005 4.6549578 -8.6582241 7
-138.77095 4.6301751 -8.7356262 13
-155.07988 4.8671942 -8.765604 9
-138.94356 5.9732218 -8.6575909 15
-139.73492 -0.69842935 -8.5665751 10
-135.32669 -0.65780234 -8.5136318 8
-146.33519 -0.5853101 -8.5710554 12
-141.73946 0.18273404 -8.580699 14
-141.91617 0.3697871 -8.4383507 14
-126.81261 0.29094738 -8.5079823 6
-141.84914 0.73488909 -8.4597712 1
-141.76105 0.70184851 -8.5987463 1
-141.95346 1.6908201 -8.4789686 3
-141.79671 1.8599734 -8.5512362 3
-141.80916 2.3487766 -8.5060759 5
-141.74802 2.2660794 -8.5589752 7
-141.67998 2.4220126 -8.5942516 7
-141.96954 2.6050062 -8.5164003 5
-141.6424 2.6913471 -8.5341969 3
-139.76306 3.6490121 -8.5191994 15
-139.49225 4.0523391 -8.4941044 11
-164.75449 4.2362022 -8.4869766 5
-154.80685 4.8079214 -8.5157709 9
-139.57332 5.2956982 -8.5025949 13
-140.3828 5.5074477 -8.5383625 15
-135.40129 -0.66648126 -8.3305359 8
-125.99574 -0.68483692 -8.3531723 10
-139.52911 3.3976114 -8.2788715 9
-139.77086 3.6270471 -8.2596102 15
-139.15852 3.7546515 -8.3078442 15
-139.34059 4.0002542 -8.3197374 11
-164.92636 5.0860043 -8.362771 5
-139.88795 5.3527517 -8.2719374 15
-139.50032 5.3097606 -8.3881035 15
-140.15808 5.430335 -8.3885193 15
-127.00557 -0.66408497 -8.1951694 10
-141.96207 -0.35102612 -8.1805763 12
-139.55574 3.3518243 -8.1152067 13
-139.51735 3.6104836 -8.1232615 3
-149.29163 3.9199333 -8.1576509 9
-139.58414 3.8179007 -8.0208244 15
-139.73813 4.0195565 -8.1369677 11
-139.49828 4.1675634 -8.0598373 15
-141.26793 4.2142653 -8.0337563 11
-148.52287 4.5666718 -8.179306 11
-148.83369 4.6198068 -8.102952 11
-154.97464 5.3269386 -8.1266737 7
-139.30017 -0.66171962 -7.8346863 10
-138.75543 -0.71298653 -7.8613935 10
-130.64978 -0.64894146 -7.8715544 10
-130.21413 -0.64427203 -7.8619652 10
-129.21027 -0.64560372 -7.9916463 10
-141.78807 3.8080182 -7.8792629 13
-137.87184 -0.69511157 -7.672163 10
-139.63896 3.7951341 -7.7572446 15
-140.22156 4.4950128 -7.6814747 11
-139.02115 4.4594712 -7.7664838 13
-140.2928 4.8144741 -7.6387181 5
-148.50227 5.2896366 -7.6284728 13
-132.29453 -0.65005785 -7.4013348 10
-143.30388 4.1019197 -7.4735155 13
-142.48219 4.4864993 -7.4946375 15
-142.28783 4.7130933 -7.4344292 15
-142.17245 4.7170787 -7.5029411 11
-140.11848 5.2305865 -7.5625134 15
-143.04622 4.0255451 -7.2829828 13
-140.16447 5.3465896 -7.2644343 9
-133.85611 -0.6761359 -7.1608438 10
-131.55788 -0.64998019 -7.0224376 2
-138.4415 -0.59306997 -7.0822206 10
-142.50198 4.7081943 -7.0438933 15
-140.34109 5.1909604 -7.1981297 15
-138.21361 -0.64988357 -6.8924961 10
-134.52672 -0.68576872 -6.9355717 10
-134.12682 -0.67482984 -6.9668217 10
-138.24327 -0.64419949 -6.5642672 10
-142.4801 4.0411754 -6.4913368 13
-135.69809 -0.69610518 -6.2404118 10
-136.06635 -0.70577174 -6.1244292 10
-135.68292 -0.66668832 -6.1584549 8
-143.19106 1.1665261 -5.8177581 3
-138.41457 -0.5985949 -5.6260071 10
-143.87067 0.22734839 -5.7652884 14
-127.44562 0.29612926 -5.6383386 6
-143.8951 0.99891233 -5.7134414 1
-143.17889 1.2336166 -5.7474136 3
-138.16005 -0.61723542 -5.5253448 10
-136.67273 -0.70872909 -5.5662093 10
-127.37829 -0.71401817 -5.2862186 10
-127.00482 -0.71718901 -5.3073859 10
-141.93938 0.92575824 -5.2540598 1
-126.31666 4.0543404 -5.2227559 15
-141.09586 5.2275772 -5.2930598 13
-128.54442 -0.70160013 -5.0956492 10
-141.98734 0.11640396 -5.077157 14
-141.98798 0.30340314 -5.1564946 14
-142.30301 0.62860823 -5.0780063 14
-142.32491 3.1464982 -5.0393753 11
-142.53326 3.9511428 -5.1706171 11
-125.98325 4.01545 -5.0481677 15
-131.13541 -0.71056753 -4.8061423 10
-128.95456 -0.69534612 -4.9672074 10
-142.69872 2.8014855 -4.907095 9
-143.67574 3.9643807 -4.7078409 9
-125.84815 4.3946333 -4.6652589 9
-133.90921 -0.66831392 -4.4403019 6
-131.77519 -0.70842373 -4.55759 10
-126.16837 -0.70252991 -4.4616985 10
-141.56223 4.2976489 -4.5711026 13
-125.41972 4.3824067 -4.561203 9
-127.06779 -0.67952102 -4.1880379 10
-126.47778 5.7635369 -4.0648394 13
-126.21754 5.6383729 -4.0358539 15
-127.93661 -0.65649337 -3.8301253 10
-137.16914 -0.51913279 -3.9064019 10
-135.99107 -0.60633117 -3.7311285 10
-135.07568 -0.76211065 -3.6844194 10
-128.29536 -0.65093231 -3.7430904 10
-137.53326 -0.56907207 -3.6762054 10
-144.62173 3.817076 -3.7308605 7
-144.55768 4.757926 -3.6142888 13
-130.89351 -0.64589876 -3.4406908 10
-130.48759 -0.64629668 -3.5291042 10
-135.4503 -0.75562936 -3.2564087 10
-131.89372 -0.65200561 -3.2961378 10
-129.58015 -0.63358951 -3.3705597 10
-138.09476 -0.15867521 -3.343812 12
-134.32234 -0.7025066 -3.0011837 8
-134.06454 -0.68653697 -3.0656776 10
-133.52176 -0.67712444 -3.155792 10
-132.5331 -0.65724409 -3.1726282 10
-137.43199 -0.53579563 -3.0587058 10
-136.42151 -0.47007391 -3.0658658 10
-135.8802 -0.57721829 -3.0965884 10
-138.29616 -0.16782241 -3.0607624 12
-138.19276 -0.1560692 -3.1782265 12
-141.1515 2.5941133 -3.0720134 2
-126.65683 4.7670965 -3.0674818 11
-126.72141 4.8673978 -3.0313783 7
-143.92432 5.8544397 -3.1959493 11
-135.64108 -0.7492249 -2.9635656 10
-136.20921 -0.58755803 -2.9370954 10
-140.60117 -0.16174862 -2.975163 11
-136.38144 3.5889938 -2.813714 13
-139.94846 5.2118125 -2.8550253 15
-134.85344 -0.69522297 -2.7496824 10
-137.6163 -0.55751348 -2.7656543 10
-137.16632 -0.51384807 -2.7001207 10
-138.45689 -0.31153506 -2.775233 12
-140.57664 -0.1598224 -2.7368155 11
-127.78983 0.27784264 -2.6727052 6
-139.90512 0.83535075 -2.6093714 1
-139.86435 1.186409 -2.649313 1
-139.92249 1.7947032 -2.7184637 7
-139.91347 2.2232621 -2.7097979 9
-139.93477 2.661243 -2.7201624 9
-140.01561 3.2679791 -2.6040397 9
-126.51229 3.5193505 -2.6561422 13
-125.3489 4.6733446 -2.6982653 12
-126.91191 5.1374493 -2.7673466 9
-135.04111 5.6552434 -2.7802551 13
-135.01396 6.3875341 -2.69315 15
-135.19868 -0.69489264 -2.4807308 10
-127.91932 -0.66062629 -2.550267 6
-137.51639 -0.54307961 -2.5899699 10
-136.33009 -0.57870263 -2.5070448 10
-139.48903 -0.23541746 -2.4520721 12
-140.07889 0.23378862 -2.5092349 14
-139.95464 3.0529499 -2.5871468 11
-137.60898 -0.55064255 -2.3536575 10
-136.50839 -0.58133316 -2.3061478 10
-140.52426 -0.15615338 -2.2907441 11
-139.55571 -0.18767859 -2.3155611 12
-135.35295 -0.69100988 -2.0491712 10
-135.18727 -0.72401547 -2.0760701 8
-129.77089 -0.66543591 -2.0014362 8
-125.08083 -0.69007015 -2.1610603 10
-137.61925 -0.54674548 -2.0162365 10
-137.47453 -0.54202223 -2.0963106 10
-139.45216 -0.2337555 -2.0101297 12
-138.86905 -0.27822661 -2.0354543 12
-125.89931 5.0492249 -2.0936289 15
-144.90578 5.311245 -2.1609931 15
-135.28265 -0.72001922 -1.8042822 8
-125.8282 -0.66981161 -1.9503528 10
-136.54298 -0.56928647 -1.8755649 10
-135.73662 3.7784083 -1.907786 13
-140.35297 4.457376 -1.9855789 13
-125.05035 5.0112853 -1.8429952 15
-126.15887 5.2361937 -1.9182673 9
-126.35865 5.8730464 -1.9368738 15
-137.66612 -0.54644668 -1.7157916 10
-139.4207 -0.33191711 -1.7313837 12
-126.51562 -0.64404649 -1.5488964 10
-139.43195 -0.23108789 -1.4551432 12
-139.24968 -0.32243973 -1.4692234 12
-135.87405 2.857276 -1.537074 7
-134.54858 4.5661478 -1.5356114 13
-132.86969 -0.68006206 -1.2829818 4
-127.39206 -0.62489748 -1.2764834 10
-126.9631 -0.63206065 -1.3705032 10
-135.98372 2.7827942 -1.3343089 11
-140.62674 3.1340003 -1.2228005 12
-140.69127 3.6560338 -1.2416615 15
-140.64114 4.1119099 -1.2334862 15
-135.13591 -0.63627207 -1.1318636 10
-139.85663 -0.25136548 -1.0832791 12
-140.54243 0.24517405 -1.0867172 14
-140.55525 0.76849723 -1.1078455 1
-140.52086 1.1339545 -1.1010377 3
-140.52705 2.0908523 -1.1301681 7
-140.53354 2.8855014 -1.1123521 9
-140.58089 3.1327605 -1.1735464 9
-140.58807 3.5028059 -1.0972209 12
-140.83923 4.127532 -1.0080734 15
-135.45895 4.0609679 -1.1068205 15
-140.78523 4.3647695 -1.1004097 13
-146.0703 4.4564085 -1.166481 9
-134.30069 -0.68531877 -0.86452764 10
-132.11084 -0.67894155 -0.93686014 2
-131.47725 -0.66576517 -0.98074901 0
-128.89351 -0.60193795 -0.83538437 10
-128.06595 -0.60600424 -0.918953 10
-140.63762 0.65040326 -0.80269223 1
-140.68721 2.3382185 -0.84664416 7
-140.54114 2.5551682 -0.91761667 9
-144.30592 5.3786998 -0.85953879 15
-135.38725 -0.62741309 -0.68916482 10
-136.94427 -0.55868882 -0.71120578 10
-128.54106 -0.59976655 -0.79391396 10
-140.58838 0.17912163 -0.77530491 14
-140.73787 0.75814688 -0.79190034 1
-140.50871 4.4546843 -0.68126059 15
-144.6066 5.4419241 -0.79800028 15
-137.63896 -0.53547221 -0.54572904 10
-129.70651 -0.59434187 -0.59608155 10
-139.56705 -0.2490329 -0.44820842 12
-135.54575 -0.61767006 -0.30261964 10
-137.77348 -0.54492605 -0.3673861 10
-136.93042 -0.54760379 -0.30812195 10
-139.24876 -0.23833434 -0.21640629 12
-134.58316 -0.750543 -0.090187572 8
-135.63956 -0.46279061 -0.036062185 10
-134.8833 -0.59174097 -0.13832137 10
-139.07843 -0.22263733 -0.02143744 12
-135.65401 -0.38714957 -0.071808062 10
-139.27754 -0.16510566 -0.074402705 12
-135.65942 -0.082737789 -0.068107471 12
-135.65634 0.24547468 -0.032037631 14
-135.70605 1.4479961 -0.036198236 7
-135.7108 1.7610599 -0.031824671 9
-135.72018 2.5164008 -0.028890323 11
-135.72974 2.9080505 -0.031831585 13
-135.76889 3.8449478 -0.04928267 15
-134.85542 -0.75947064 0.11725897 8
-138.90254 -0.2600472 0.096767418 12
-135.68672 -0.08018893 0.036232281 12
-142.21864 0.16413391 0.11961865 14
-135.80472 0.25490934 0.021814968 14
-135.75165 0.52156758 0.056094624 1
-140.94441 0.66982234 0.11795761 13
-140.92424 1.4932282 0.096028425 0
-135.7249 2.0705106 0.040331256 11
-140.78937 3.1510825 0.023080107 4
-144.89442 5.6996703 0.042668201 13
-142.21964 0.19294514 0.26694965 14
-139.86661 0.1539773 0.37272328 14
-139.82169 1.4482708 0.36126474 5
-139.7952 1.8794509 0.38148844 7
-139.71042 3.658555 0.32213014 15
-139.62941 4.336987 0.39022908 7
-145.19879 5.3765554 0.2505922 11
-144.97768 5.6735387 0.2637772 13
-134.78815 -0.64851016 0.43682554 10
-126.05653 -0.72406137 0.46433142 8
-135.23964 -0.57931399 0.53244489 10
-134.94466 -0.56758451 0.54971498 10
-139.09848 -0.23434234 0.45411608 12
-138.97748 -0.29250115 0.40707284 12
-141.62117 0.12355927 0.57339913 14
-139.7946 0.57537353 0.56957376 1
-139.78046 1.0011458 0.58723229 3
-139.73735 1.6172194 0.54453397 3
-139.73055 1.8437748 0.58261073 3
-139.72989 2.2613776 0.51488328 7
-139.68987 2.7276728 0.53313476 11
-139.68256 2.8446083 0.4538492 7
-139.69315 3.0744181 0.40392601 11
-139.92133 3.2231534 0.58455056 7
-139.66544 3.5033259 0.50990534 11
-139.87593 3.6722102 0.56777418 10
-139.73161 3.8619199 0.52827007 5
-139.83488 4.0886302 0.58742648 11
-139.89064 4.6303339 0.55193293 11
-128.54691 -0.65865928 0.64403516 6
-134.88411 -0.59666502 0.61187416 8
-139.94547 0.14248484 0.70787722 14
-140.00337 0.40496266 0.70547271 14
-139.80112 0.49344015 0.60152805 14
-140.03142 0.70477873 0.65282673 14
-139.8094 0.6814459 0.60997552 1
-139.78146 0.72606146 0.64724231 14
-140.01505 1.0105442 0.67414629 1
-139.98402 1.1660922 0.66582501 1
-139.79489 1.1494718 0.62806433 3
-139.944 1.4379267 0.68181479 5
-139.9097 2.3104749 0.66960394 9
-139.80667 2.5246327 0.60939318 5
-139.84705 3.1979361 0.62221301 13
-129.89499 -0.66967142 0.92800629 8
-141.5379 0.1127973 0.94632727 14
-135.16235 -0.61710846 1.0396401 8
-136.36293 -0.47952265 1.1103956 10
-138.89015 -0.22005311 1.0035752 12
-138.74503 -0.25807986 1.0849627 12
-139.07637 -0.16883843 1.1200662 12
-136.24266 -0.46626538 1.380277 10
-138.9449 -0.15424253 1.2252948 12
-141.64194 0.10253235 1.2184026 14
-135.22308 -0.61809868 1.4249122 8
-134.94193 -0.58647352 1.4914325 8
-138.83899 -0.23597196 1.4671289 12
-139.22594 -0.17392071 1.5500358 12
-141.33623 0.094940886 1.5827205 14
-144.00587 0.41848528 1.5938748 14
-136.48575 -0.46499225 1.6423347 10
-139.07784 -0.23303425 1.6839919 12
-138.94083 -0.26105332 1.6663779 12
-140.19232 1.8279437 1.7787015 7
-135.34828 -0.62831467 1.8608226 8
-136.50821 -0.45471227 1.9232681 10
-135.98129 -0.55246359 1.8554416 10
-134.75864 -0.59500253 1.813071 10
-138.67021 -0.25530601 1.968655 12
-139.78996 -0.12044272 1.8526033 11
-140.70316 0.090350769 1.9939629 14
-136.39165 -0.46344942 2.1545777 10
-138.89647 -0.22873071 2.0643954 12
-139.03714 -0.15956388 2.0716057 12
-135.35828 -0.6644603 2.3274815 8.5
-135.01343 -0.69899213 2.2551548 9
-132.65402 -0.70458364 2.2431986 6
-136.52216 -0.45933259 2.2007537 10
-135.88979 -0.54479569 2.3021219 10
-134.99744 -0.58737904 2.2541611 8
-139.04669 -0.16918851 2.3100436 12
-135.23386 -0.61479545 2.4956939 8
-134.45987 -0.77180749 2.5892673 8
-134.17378 -0.67080849 2.4686434 9
-133.69531 -0.65969712 2.5013003 9
-136.72379 -0.47924161 2.4294 10
-136.41782 -0.46181613 2.4175014 10
-136.02811 -0.54199249 2.5918419 10
-138.99426 -0.28630519 2.5574071 12
-140.0899 1.6303523 2.4218771 5
-140.44447 1.8194852 2.4288166 7
-134.60051 -0.77318782 2.737741 8
-131.77228 -0.6184504 2.7728708 9
-136.88376 -0.49186093 2.7724092 10
-136.74423 -0.48583078 2.7063832 10
-136.58162 -0.47037488 2.7078965 10
-134.81638 -0.56360209 2.7146447 10
-138.97746 -0.27800989 2.7576723 12
-138.67738 -0.26470441 2.7485437 12
-139.07935 -0.15886794 2.7901268 12
-142.39555 0.118201 2.6378832 14
-126.17648 3.9206166 2.6925716 13
-134.43007 -0.75120926 2.8565347 6
-135.04309 -0.57910919 2.8774717 9
-140.62064 1.333842 2.9592485 0
-140.37952 2.0653496 2.9171505 2
-126.24655 3.9801207 2.9366102 9
-126.14425 3.9335423 2.9146063 7
-135.48705 -0.67603999 3.1190212 9
-134.77803 -0.76235336 3.134984 8
-133.44502 -0.72160774 3.1468365 6
-133.2542 -0.70059705 3.1254728 6
-133.02663 -0.71915346 3.0746813 4
-131.14639 -0.67038441 3.1078296 4
-127.94946 -0.68163705 3.1699657 7
-139.17386 -0.17563115 3.0836484 12
-142.03084 0.11540292 3.1271012 14
-132.84915 -0.68415833 3.2316644 4
-131.94861 -0.65959328 3.2867959 2
-131.33618 -0.64902437 3.3103058 0
-131.11317 -0.63717037 3.3443968 4
-129.67244 -0.65916568 3.3874464 2
-129.3651 -0.65327585 3.3088858 2
-128.29576 -0.65973592 3.287631 6
-128.11061 -0.66009855 3.2860498 6
-135.20149 -0.55708921 3.3105881 10
-141.97356 0.11378492 3.3482656 14
-139.85574 0.14251783 3.3118243 14
-139.82472 0.333837 3.3511975 14
-139.78723 1.0766475 3.3250511 3
-139.70615 1.5330001 3.3798647 5
-139.71593 1.9999229 3.3814943 7
-139.67464 2.2167304 3.3153255 5
-139.84634 2.5367968 3.2959206 11
-139.76532 2.4793508 3.3627713 9
-139.81686 2.9566689 3.3102376 13
-125.87273 3.7464304 3.3778477 13
-126.09225 3.9034033 3.3225391 9
-139.69452 4.058176 3.3508332 11
-129.98264 -0.66196096 3.5581012 7
-129.68326 -0.65933084 3.5055008 7
-128.54288 -0.62726247 3.5424724 6
-128.06503 -0.65845364 3.5093353 8
-125.66072 -0.67859125 3.5330243 10
-125.26039 -0.6895991 3.4657912 10
-139.22691 -0.26126486 3.4847364 12
-139.32237 -0.10436529 3.435111 11
-136.13162 -0.044666648 3.5124383 11
-139.96198 0.1434491 3.4947751 14
-139.91681 0.99575442 3.5216749 3
-135.92555 1.2169275 3.5941167 0
-139.77849 1.4209356 3.4448154 5
-139.68611 1.9268368 3.4198122 5
-139.85556 2.1066067 3.4872997 9
-139.83305 2.289156 3.535805 9
-139.70905 2.4680591 3.4121242 7
-139.9565 2.9756329 3.4756691 11
-139.80255 3.4270968 3.4746544 9
-139.72787 3.5651383 3.4251356 11
-141.63542 0.11107299 3.6023486 14
-135.55687 2.4435735 3.7967181 4
-126.14137 -0.65823221 3.8039956 10
-138.64969 -0.25108704 3.8977251 12
-126.16615 4.0364537 3.9920223 15
-126.5435 -0.64164871 4.0373931 10
-135.42511 -0.46455926 4.1600947 10
-135.20808 -0.53277338 4.0237999 10
-135.54675 -0.38453043 4.0403347 10
-139.47101 -0.10568747 4.0529761 11
-138.68599 -0.15550286 4.1185493 12
-135.4922 -0.10209179 4.1640711 12
-135.42383 0.17579666 4.1707411 14
-146.45299 0.68290281 4.1398377 1
-126.24226 4.0735121 4.0006881 9
-125.91083 4.0341897 4.0410566 15
-128.32539 -0.60896546 4.3311152 10
-127.71323 -0.61833382 4.2326484 10
-136.93616 -0.49222445 4.3432388 10
-136.65053 -0.52352542 4.2582145 10
-135.53693 -0.44062924 4.3710361 10
-138.51762 -0.23797578 4.2465782 12
-138.3951 -0.2363233 4.2982187 12
-135.43758 -0.37557143 4.2737436 10
-138.94327 -0.16550602 4.3765659 12
-138.59933 -0.18268353 4.2376757 12
-135.48508 -0.086852938 4.2648749 12
-140.37569 0.10715929 4.3263822 14
-135.40646 0.20261306 4.2841725 14
-135.35992 0.34629035 4.3953581 14
-135.37671 0.48313355 4.2739229 1
-135.308 0.83564383 4.2754693 3
-135.25352 1.148742 4.2862177 5
-135.20395 1.2397475 4.3737245 7
-135.17943 1.4488181 4.3928337 7
-135.81119 -0.45914382 4.4051394 10
-135.5443 -0.46346784 4.4043608 10
-130.05066 -0.5953238 4.5490875 10
-129.76562 -0.59424955 4.5663557 10
-129.28195 -0.5990299 4.4635196 10
-128.92247 -0.59874028 4.4945817 10
-138.51044 -0.25468832 4.4894948 12
-135.71208 -0.39661974 4.4275284 10
-139.84756 -0.11330119 4.5569854 11
-135.69539 -0.11173892 4.4245405 12
-140.48029 0.11552227 4.5345726 14
-135.54102 0.18278317 4.4349699 14
-135.60612 0.51718563 4.4391904 1
-135.41592 0.43983907 4.4378281 1
-135.38631 0.42740387 4.416131 14
-135.48825 0.74417073 4.476788 1
-135.45213 0.82903433 4.48456 3
-135.29892 0.93932176 4.4457731 3
-135.29039 1.287168 4.4970474 4
-135.42624 1.4597027 4.5141931 7
-135.33621 1.5336151 4.5606174 5
-135.16219 1.4942565 4.4847951 9
-135.11981 1.7525899 4.4832048 10
-135.06503 1.9276025 4.4708567 7
-135.10992 2.0513523 4.449204 12
-135.05305 2.2901027 4.5227208 15
-134.89439 2.6485152 4.5725937 15
-132.6512 5.5137048 4.494154 13
-136.83699 -0.48655075 4.7452121 10
-135.40451 -0.52088588 4.6379471 10
-130.40765 -0.5940913 4.6015453 10
-129.62924 -0.59196436 4.6192956 10
-138.80325 -0.26886892 4.6116791 12
-138.7708 -0.2599172 4.6197748 12
-138.88612 -0.13731794 4.6365876 12
-135.28442 1.7746215 4.6121674 11
-135.30562 2.0473752 4.6958842 13
-135.16475 2.0395756 4.6924314 11
-135.23402 2.2980072 4.77145 9
-135.18152 2.3429711 4.7976403 13
-134.9935 2.3425145 4.60114 13
-125.07967 2.6621144 4.7824645 13
-134.57805 3.0494165 4.6432095 13
-134.20619 3.3940194 4.6647806 15
-125.79559 3.4009974 4.6668983 13
-126.34296 -0.71109444 4.8047338 4
-136.67813 -0.51145202 4.9230714 10
-136.55513 -0.50664985 4.8579106 10
-138.68835 -0.2635209 4.9879375 12
-139.02203 -0.17562312 4.8921413 12
-138.99512 -0.16143544 4.8803205 12
-143.80368 0.31927755 4.8686295 14
-135.16696 2.2793438 4.8124337 15
-135.12323 2.6433539 4.9259968 13
-134.89571 2.6036682 4.8019199 15
-134.78273 2.6278977 4.8708916 11
-136.6604 -0.47463286 5.024446 10
-139.06958 -0.28374898 5.167964 12
-138.73183 -0.26658952 5.010673 12
-139.34827 -0.15414074 5.1553059 12
-140.96533 0.095112368 5.1443529 14
-140.88029 0.30827859 5.1790581 14
-128.03503 0.22039104 5.0419226 6
-141.10202 2.3718455 5.1204906 9
-135.22998 2.6259623 5.1126328 13
-135.16905 2.6653042 5.1922441 5
-126.8182 4.5423403 5.0558066 11
-136.65695 -0.48939234 5.2692347 10
-136.51131 -0.49376249 5.3117213 10
-139.48848 -0.20048665 5.300035 12
-139.34723 -0.3013522 5.3807454 12
-139.45731 -0.17977466 5.2547412 12
-141.09894 0.087610841 5.3984098 14
-140.9922 1.4998771 5.3791347 3
-134.91522 -0.76279747 5.4853582 8
-136.72353 -0.48530638 5.5109382 10
-141.66963 0.075278983 5.5026531 14
-141.07202 1.4270279 5.4257298 5
-141.01982 1.8804436 5.4010782 7
-141.06419 2.3485072 5.4046421 9
-125.25297 -0.73759067 5.643393 8
-136.82819 -0.49626905 5.6738858 10
-136.69553 -0.4982799 5.7154083 10
-136.03032 -0.52110291 5.6037054 10
-139.52092 -0.30976313 5.7432036 12
-135.10852 2.8758471 5.7632127 13
-134.83171 -0.72700071 5.849452 10
-136.89966 -0.51063383 5.8406086 10
-136.25859 -0.52456945 5.900249 10
-135.92458 -0.50936514 5.8279834 10
-139.75848 -0.21682273 5.8766046 12
-139.31432 -0.30101103 5.9545002 12
-141.93758 0.062436223 5.8845115 14
-135.10168 2.9962864 5.9435325 11
-140.30568 3.776849 5.9504824 13
-134.4136 -0.7498011 6.0351195 6
-133.58473 -0.68814176 6.1835485 10
-125.80138 -0.7120412 6.0725965 10
-125.4469 -0.71651214 6.1450958 10
-136.9549 -0.51054966 6.1268063 10
-136.48157 -0.5323146 6.0542607 10
-136.06775 -0.50973582 6.0787206 10
-139.56261 -0.31508911 6.1262197 12
-139.72722 -0.19528247 6.0969572 12
-142.93277 0.28843987 6.1961546 14
-147.87511 0.88057131 6.0636277 1
-133.1218 3.5883048 6.1656427 15
-132.6722 3.5472424 6.1362782 15
-126.40533 4.1650014 6.0778108 9
-126.4346 4.2903872 6.1603851 11
-139.50136 4.6347694 6.1512985 15
-132.96342 4.7356176 6.0429611 14
-133.99248 4.8252764 6.1224003 14
-132.70436 -0.6673826 6.3532367 10
-130.06978 -0.64937073 6.201107 8
-126.82544 -0.67842501 6.3570905 10
-126.20177 -0.69582081 6.2350926 10
-125.68489 -0.75967991 6.3475437 6
-135.40617 -0.54783309 6.3742056 9
-139.23792 -0.30040306 6.3250651 12
-139.98262 -0.17870924 6.3839936 12
-146.31372 0.61110181 6.3976092 1
-132.88895 3.4955416 6.3951879 15
-126.54356 4.4322591 6.3337541 13
-133.31462 4.7045655 6.2744908 14
-126.77428 4.8471136 6.3095274 11
-125.68486 5.628448 6.2455091 13
-131.97916 -0.65078187 6.5343547 10
-128.26933 -0.648956 6.5689869 10
-125.41302 -0.72286564 6.4996285 2
-125.21429 -0.77883643 6.4498234 6
-136.77802 -0.48673511 6.543088 10
-136.3983 -0.51447934 6.5765061 10
-139.84639 -0.22676669 6.4324274 12
-142.48618 0.20881206 6.4922004 14
-148.74838 0.97897196 6.5213089 1
-140.20648 3.1639421 6.4544544 13
-140.1976 3.1647444 6.4635487 11
-135.18996 3.7312806 6.5410986 10
-133.52818 3.6012478 6.425849 10
-126.409 4.3673625 6.5781512 13
-134.36452 4.7480106 6.55165 14
-126.76262 4.8616953 6.4413447 13
-125.32978 5.025794 6.4453874 15
-133.63667 5.6874366 6.590941 13
-131.04092 -0.63542515 6.713902 10
-130.02744 -0.63173527 6.7423015 10
-136.84415 -0.502608 6.6648235 10
-139.22804 -0.30292666 6.6240635 12
-140.17795 0.076084316 6.7362275 14
-140.12729 0.22969979 6.7691193 14
-140.16948 0.50379288 6.7746811 1
-140.13139 1.3636583 6.7125239 5
-140.12843 2.2319593 6.7278152 9
-140.13159 2.6486664 6.7325926 10
-139.99557 3.0907023 6.7463722 11
-134.44328 3.1730721 6.7537284 13
-133.24535 3.4509647 6.6964164 15
-126.26233 4.2416663 6.7794776 3
-134.20717 4.7027459 6.6415386 14
-135.32526 4.8243098 6.7384992 14
-133.98831 5.7632017 6.6782336 11
-133.75108 5.6531558 6.7695017 15
-133.52429 5.6705942 6.6462884 15
-136.71611 -0.490619 6.9513845 10
-136.3896 -0.50410688 6.9833908 10
-139.70039 -0.21355198 6.8853154 12
-139.45683 -0.31777608 6.8893738 12
-140.2466 0.06938611 6.9852633 14
-140.12962 0.30242342 6.9368086 14
-140.22159 1.1663748 6.9963017 3
-140.31621 1.3660598 6.9753871 5
-140.28281 1.7243431 6.9530249 6
-140.43756 1.956064 6.9667363 3
-140.12683 2.1190851 6.9120326 7
-140.20609 2.2269294 6.9738045 9
-140.0735 2.9444547 6.8375134 9
-140.10475 3.1062002 6.8405004 13
-133.69106 3.688607 6.9415355 7
-132.98401 3.657969 6.9814858 7
-125.4844 3.6027668 6.8113046 5
-139.62988 3.961627 6.9855227 15
-133.42049 4.0106974 6.9910884 5
-126.04572 4.1052084 6.8417311 9
-125.60857 4.0078011 6.9526563 9
-125.50768 4.1451564 6.8729477 11
-132.64119 4.4297452 6.9218969 8
-136.73997 -0.47672915 7.0536318 10
-136.46645 -0.46340325 7.1187143 10
-135.56688 -0.52961558 7.035069 9
-142.49748 0.2639541 7.1329546 14
-144.53427 0.47222805 7.0717974 13
-148.76534 0.95389575 7.0313745 1
-132.70653 3.5291386 7.1633658 3
-134.00797 3.6211433 7.1939626 9
-132.3063 3.9614275 7.1900592 5
-133.36629 4.0807772 7.1368461 9
-132.51521 4.1662898 7.1755238 11
-126.25339 4.1146054 7.1691885 3
-126.21008 4.3128743 7.0674181 7
-132.47891 4.7497125 7.1000404 9
-136.67923 -0.48682541 7.2264585 10
-139.97589 -0.22931446 7.2503414 12
-139.41924 -0.32131422 7.3113704 12
-141.91451 0.031542957 7.3015485 14
-140.40933 2.6873317 7.2405167 11
-139.94058 3.0261946 7.35707 13
-133.37871 3.0749369 7.2678566 5
-133.45329 3.5582752 7.3634515 9
-132.99287 3.5248971 7.2701283 3
-139.8942 3.9237344 7.2789388 13
-133.18309 4.1945939 7.2175655 11
-125.04621 4.2909527 7.2117438 5
-136.61162 -0.46185899 7.5540066 10
-136.55867 -0.47651726 7.4901881 10
-136.35175 -0.49216628 7.4063706 10
-140.55681 -0.13338009 7.5018039 11
-140.39236 2.5807223 7.4230642 9
-140.15051 3.5192297 7.4031801 15
-133.14392 3.6311171 7.4135208 5
-134.07178 4.77666 7.4160872 11
-134.01688 4.8110075 7.5232615 13
-139.20605 -0.31559056 7.6850724 12
-139.91866 -0.1522686 7.7165642 12
-139.84193 3.4186146 7.6413245 15
-125.1161 3.8899686 7.6194873 9
-134.14183 5.1502352 7.6008 11
-134.03156 5.4155474 7.6585498 15
-136.91043 -0.50803936 7.9266057 10
-136.78284 -0.5075925 7.9024262 10
-136.52307 -0.48451486 7.8186569 10
-139.7328 -0.24354719 7.9463305 12
-139.04453 -0.31199819 7.9938288 12
-140.03143 -0.15313192 7.9051504 12
-133.98576 3.3874576 7.872808 5
-134.02223 3.4915733 7.8838968 9
-133.91666 4.3069811 7.8981237 9
-125.00343 5.2184753 7.8815174 13
-134.91158 -0.75391215 8.0835686 10
-134.41376 -0.74228644 8.1170435 10
-125.25489 -0.76417583 8.0106878 10
-137.08842 -0.49038452 8.0857515 10
-136.90283 -0.50993758 8.1485939 10
-128.06987 0.21536759 8.0517473 6
-134.99319 -0.75872594 8.2079582 8
-126.45962 -0.72271842 8.3316936 10
-126.0686 -0.7336157 8.263545 10
-125.69017 -0.7404303 8.2822361 10
-125.58041 -0.7720179 8.3133068 4
-137.52281 -0.52061933 8.331337 10
-137.23152 -0.52944601 8.2658014 10
-139.50177 -0.23763029 8.2037258 12
-135.1416 -0.60441118 8.5611382 8
-134.40517 -0.73808867 8.4733248 6
-133.70345 -0.71299195 8.4546919 10
-133.28859 -0.70345336 8.515976 10
-127.35036 -0.6983608 8.5277929 10
-125.3175 -0.78459001 8.4214735 4
-136.42139 -0.51679432 8.4666882 9
-135.42642 -0.47511876 8.4602509 9
-140.11443 -0.12359762 8.4970703 11
-132.80164 -0.69060224 8.6383791 10
-129.18739 -0.66791946 8.7846928 10
-128.21721 -0.68094498 8.667654 10
-137.29265 -0.52688336 8.7015944 10
-140.45815 -0.13472304 8.6471243 11
-131.87302 -0.67061931 8.8361549 10
-131.49374 -0.66418606 8.9043341 10
-129.95816 -0.65657264 8.9603157 10
-128.16748 -0.66465414 8.9838486 6
-135.6142 -0.47022259 8.8450489 9
-139.55118 -0.23546368 8.9448271 12
-125.5352 -0.73596579 9.1547327 6
-137.27164 -0.51926041 9.1814651 10
-139.68552 -0.23569027 9.0044212 12
-139.34612 -0.30620793 9.1857491 12
-139.90614 -0.16489325 9.1278296 12
-143.07779 0.18885067 9.1074724 14
-137.53499 -0.52867758 9.2466736 10
-136.59785 -0.49991471 9.3240862 9
-140.20078 -0.23981693 9.2688589 12
-139.9026 -0.23882957 9.3452063 12
-139.50716 -0.25687885 9.2143116 12
-144.48645 0.5472908 9.2831831 14
-144.38474 0.47667998 9.368165 14
-140.19383 0.58165824 9.3762455 1
-139.93951 3.225322 9.223176 13
-139.91664 3.4501965 9.3624468 5
-139.80103 3.6760454 9.2905464 7
-135.10484 -0.6130091 9.5714369 8
-135.06378 -0.57200706 9.5687962 10
-139.84399 -0.27740872 9.4461765 12
-140.19156 -0.15067393 9.5722055 12
-143.15428 0.1758236 9.4477558 14
-142.82129 0.10395898 9.5093346 14
-146.44872 0.70243216 9.428463 1
-140.11301 1.8767143 9.5812502 7
-139.96118 2.3109307 9.4174681 9
-140.028 2.7592762 9.5002918 11
-140.0499 2.8906984 9.4675169 5
-134.11389 3.4274626 9.5548296 12
-125.50378 -0.77699763 9.731945 2
-137.81033 -0.54425234 9.6325531 10
-139.8183 -0.28244412 9.7234955 12
-143.99046 0.39992344 9.639451 13
-144.34689 0.46932319 9.7001638 14
-134.42499 3.4543395 9.6128798 12
-139.53688 4.3882885 9.6009893 9
-135.03888 -0.66757071 9.9551077 10
-142.35367 0.098654151 9.8490973 14
-134.79561 3.4570246 9.8175049 12
-139.33105 4.3349199 9.809082 9
-135.19006 -0.55598003 10.050726 10
-140.01825 -0.29974282 10.054925 12
-140.53812 -0.14624113 10.119946 11
-140.38803 -0.15039492 10.132651 12
-144.22893 0.3841061 10.109187 13
-135.1675 -0.60781819 10.231715 8
-134.62979 -0.74801743 10.392484 10
-137.82951 -0.55128342 10.264529 10
-136.76886 -0.47043699 10.315414 10
-135.7139 -0.55914342 10.397688 10
-135.45041 -0.55726695 10.223128 10
-140.20477 -0.26953501 10.33317 12
-140.34454 -0.16076064 10.310877 12
-142.48463 0.083464943 10.22807 14
-144.20454 0.37683406 10.352188 13
-135.01823 -0.75201607 10.461276 10
-137.62289 -0.53591144 10.538095 10
-140.5007 -0.1505689 10.446663 12
-140.2865 -0.15549511 10.447464 11.5
-141.23685 0.39096743 10.519653 13
-141.27907 2.0974677 10.502703 4
-134.31668 3.5308902 10.567071 11
-134.02173 3.4754722 10.549581 9
-133.88864 3.4932439 10.408204 9
-149.74315 3.6673057 10.420643 6
-135.23727 -0.61006314 10.797512 8
-133.73027 -0.71540546 10.727096 10
-137.85428 -0.55981195 10.762821 10
-140.1167 -0.29690364 10.697273 12
-128.13417 0.26176459 10.676432 6
-134.44867 3.4399462 10.662941 7
-134.31071 3.4790447 10.619629 9
-135.11714 3.7354889 10.714251 14
-134.48892 3.6178222 10.753878 14
-140.66197 4.8962269 10.601995 14
-133.11452 -0.70094931 10.839915 10
-132.73055 -0.69660032 10.838613 10
-127.0058 -0.70770764 10.992096 10
-126.38701 -0.72469819 10.901734 10
-125.64439 -0.74146605 10.90296 10
-125.25182 -0.75686061 10.803447 10
-140.31296 -0.1409329 10.933989 12
-143.91179 0.36025128 10.95551 13
-134.58324 3.4727728 10.944276 11
-150.05257 3.6694179 10.827564 6
-140.54593 5.3683987 10.964365 13
-135.27544 -0.6133588 11.164565 8
-130.96483 -0.67479998 11.028263 10
-130.23018 -0.66968697 11.114871 10
-129.86659 -0.66713071 11.175856 10
-129.28035 -0.67661768 11.056518 10
-128.62511 -0.68154156 11.061731 10
-127.91114 -0.6880905 11.090877 10
-125.56749 -0.74268609 11.128675 4
-137.80312 -0.56299394 11.199883 10
-139.94742 -0.27185726 11.052907 12
-136.05215 -0.01280719 11.146483 11
