# .PCD v0.7 - Point Cloud Data file format
VERSION 0.7
FIELDS x y z intensity
SIZE 4 4 4 4
TYPE F F F F
COUNT 1 1 1 1
WIDTH 1393
HEIGHT 1
VIEWPOINT 0 0 0 1 0 0 0
POINTS 1393
DATA ascii
-2.4629359 1.4910114 5.4515939 15
-2.2804542 1.5649115 5.4926744 15
-0.80781513 1.4609234 5.515924 15
-0.038086604 1.46181 5.4554162 15
2.3145783 1.5352247 5.524004 15
3.5240932 1.5065669 5.4612312 14.5
3.5254731 1.6715798 5.47925 15
11.94462 1.7762442 5.4679775 15
15.317802 1.7834578 5.5506172 12.5
15.431006 1.7875053 5.4778986 13
18.594252 1.7364117 5.5098042 13
18.61368 1.7745734 5.4637709 11
21.925276 1.7720838 5.5422211 15
23.184118 1.699263 5.5546341 12
8.6742706 1.8748903 5.4168882 15
10.559067 1.883814 5.4676785 14
11.912886 1.9124253 5.5115404 14.375
15.311648 1.8008206 5.5640497 13
21.942728 1.8125471 5.4433222 11
8.6237364 2.0035081 5.4103904 15
11.901661 2.0560529 5.5271826 11
13.571587 2.1568916 5.4099684 13
13.977948 2.1065867 5.409709 15
14.162519 2.0896468 5.4220829 12
14.346189 2.0998569 5.4451494 11.5
14.457589 2.1034009 5.4656925 14.5
14.668618 2.1094413 5.4957409 12.875
14.957977 2.1002026 5.5306239 12
15.139906 2.0931854 5.5565634 13.375
15.375624 2.0892596 5.5837107 13.25
15.445049 2.0768447 5.5998087 9
18.722271 2.0383906 5.584722 11
18.90188 2.089808 5.4416981 11
19.187969 2.08531 5.4367638 13
19.347635 2.0884368 5.4628439 11
19.509819 2.0850868 5.5154276 12.5
19.7645 2.0877788 5.5254483 11
19.905981 2.0865903 5.5146475 15
20.075588 2.0985668 5.5331144 9.5
20.285313 2.1533864 5.4257517 8
20.43812 2.0885847 5.5909038 14
-3.0289609 -1.0131094 5.6979933 1
-2.8780487 -1.0158011 5.7894621 4
-2.2140708 -1.0034056 5.672092 2
-2.1846302 -1.0328881 5.6656818 0
-1.8219979 -1.034253 5.7860546 4
-1.6516383 -1.0187333 5.7590165 4
-1.5435412 -1.001475 5.6915526 2
-0.93178725 -1.037431 5.6154304 4
-0.72345495 -1.0353101 5.634872 4
2.7092805 -1.0093153 5.767962 6
-2.2402871 -0.99835151 5.7552104 0
-1.314465 -0.9891116 5.7085562 2
1.1256136 -0.98637646 5.7292891 4
2.7569127 -0.94265133 5.6760092 4
3.6869864 -0.97160256 5.6744366 3.5
3.9831653 -0.89843535 5.7653937 0
4.0360885 -0.9184255 5.7714968 4
4.2832971 -0.97462219 5.7126651 0
4.8265891 -0.96804947 5.6075277 2
5.4900513 -0.94966274 5.7657561 4
10.147128 -0.89147133 5.7437649 6
10.684999 -0.89553881 5.6869307 8
10.853618 -0.89098835 5.7053676 8
12.056855 -0.85731047 5.7242303 4
12.386549 -0.91171479 5.750504 8
12.407966 -0.88480973 5.7041216 6
12.781482 -0.870866 5.7055683 10
12.80255 -0.86182922 5.6342921 6
13.743587 -0.85006058 5.6518235 6
13.907637 -0.87754071 5.6855984 7
14.002823 -0.88110298 5.7341108 6
14.312128 -0.88213259 5.6710405 6
14.752923 -0.88409698 5.6175246 6
14.920516 -0.8686015 5.6099639 6
15.074603 -0.87283337 5.7734523 6
15.345193 -0.88092566 5.7183909 6
15.510888 -0.88872349 5.7380514 4.5
15.619472 -0.88202596 5.6965876 6
15.965678 -0.89571989 5.6434832 5
16.382542 -0.82030785 5.6827145 6.53125
16.53731 -0.91184282 5.6105757 4
16.793728 -0.86147571 5.7728834 8
16.842297 -0.89444238 5.7670202 6
17.112234 -0.8253395 5.7975264 10
17.335096 -0.87274969 5.7709775 6
17.414621 -0.87838382 5.6968522 6
17.902416 -0.89512563 5.7789774 6
18.349453 -0.88083351 5.6228156 8
20.61734 -0.86038399 5.7499213 6
20.830843 -0.88715065 5.7415519 6
22.165699 -0.88132513 5.6078548 6
22.983259 -0.80777836 5.7750206 8
24.433537 -0.95420867 5.7343235 7
-3.0750349 -0.78849471 5.6376715 8
3.6625311 -0.70011377 5.6121502 1
16.33638 -0.7456609 5.6672401 6.0208435
16.458755 -0.70994997 5.6679878 7.59375
16.766779 -0.72694099 5.6929989 9
16.895477 -0.75243658 5.7550378 8.5
17.179729 -0.74833852 5.7810574 6.25
17.2185 -0.71642965 5.7915444 8
17.897091 -0.67554903 5.7185249 8
22.962503 -0.65907323 5.7500601 8
-3.2084117 -0.57860929 5.6903849 8
-3.1193542 -0.56937861 5.7508149 8
3.5256085 -0.41838229 5.6068401 9
3.6438386 -0.52989554 5.627831 4
16.335436 -0.56291705 5.6659493 8.2534733
16.411484 -0.45031732 5.7033019 10.03125
17.139965 -0.49064049 5.7872949 9.25
22.957813 -0.46016049 5.789341 10
23.02067 -0.54941177 5.7405586 10
-3.2460799 -0.37494332 5.7977633 11
3.6534266 -0.31256518 5.6565609 8
16.346249 -0.33905521 5.6721249 11.25
16.469406 -0.28440166 5.6686993 12
17.146606 -0.31022969 5.7938094 11.5
22.956299 -0.26600382 5.7915964 12
23.02754 -0.29214346 5.737916 12
-3.1954792 -0.025134329 5.6764426 1
3.4838037 -0.15679289 5.6143589 13
16.344578 -0.055299863 5.6645088 7.5
16.550472 -0.11896035 5.7125134 14
19.065128 -0.025364786 5.7460546 0
22.964775 -0.071505561 5.7933464 14
-3.1629272 0.15655527 5.6816702 3.6666667
16.352772 0.09303093 5.7160244 1.6835915
16.476086 0.016080942 5.689147 7.5
17.925264 0.17581782 5.755661 1
19.041986 0.12393808 5.6996646 1.6666666
19.220566 0.19465344 5.7208138 2
19.619436 0.18434718 5.7297273 3
22.974491 0.088753328 5.7926064 7.5
24.419979 0.10156436 5.7779622 1
-3.2411926 0.39469951 5.7129235 7
3.6496897 0.23143047 5.669744 3
16.354443 0.26810992 5.6454258 4.1230469
16.424458 0.31656075 5.7589664 1
16.679449 0.33836383 5.7791061 1
17.984972 0.2650263 5.7207999 2.5
18.037151 0.30507231 5.666235 1
19.301434 0.36073256 5.630497 4.375
19.46525 0.3459703 5.6161823 4
19.935051 0.37203312 5.6914034 4
20.165096 0.39229858 5.6488266 4
20.567553 0.3926768 5.6310658 4
22.979437 0.21926075 5.788465 1
-3.17366 0.59268308 5.6395216 10
3.6511815 0.45205367 5.6745338 7
16.338156 0.47621626 5.6868696 6.841795
16.413687 0.48334998 5.765532 3
19.658268 0.40639675 5.6553817 4
20.455669 0.41231424 5.6209931 4
22.970766 0.56938565 5.798811 1
23.005001 0.47803813 5.7723794 3
-3.1258943 0.74807572 5.7501011 7
3.6263187 0.66717148 5.6714721 10.5
16.339184 0.6882627 5.6682067 9.6327715
16.410149 0.69111454 5.7664156 3
23.021336 0.73700488 5.7930923 5
-3.1359057 0.94881481 5.7923288 15
3.5817602 0.84816146 5.62708 13
3.6266637 0.86952168 5.6744938 13.5
16.331482 0.84197497 5.6982203 10.929565
16.41835 0.91827601 5.7773886 4.5
3.5103855 1.0468596 5.6003709 9
16.332993 1.0355544 5.7032089 13.839715
16.406612 1.1550994 5.7727399 6.5
-3.1047788 1.2227044 5.7164392 11
-2.6519747 1.38089 5.6555648 13
3.5108662 1.2856711 5.6054902 11
16.31398 1.2467027 5.7399011 14.779173
16.435919 1.280236 5.7911291 5
-3.164381 1.5161891 5.6724248 14
-2.6471932 1.4072213 5.6351056 15
-2.4887376 1.4644101 5.7019548 15
-0.10631482 1.4711585 5.6148601 15
2.2659576 1.45648 5.7376957 14.5
2.4498148 1.4303682 5.6796856 14
16.354561 1.493948 5.7438469 14.466667
16.407333 1.4499419 5.7841382 8.5
-2.2417288 1.6238307 5.6303554 15
3.5488181 1.7884171 5.7101445 15
16.356972 1.6704966 5.7697167 14.708984
16.40694 1.7080059 5.7788572 10.5
18.56823 1.7647289 5.7359772 12
21.927107 1.7711867 5.7571826 11
22.024002 1.7414203 5.6430397 7
10.454901 1.8724006 5.6777291 13
11.910388 1.8046808 5.7191072 15
16.128967 1.9950279 5.6878252 15
16.366699 1.8671362 5.7724566 14.607422
16.470911 1.9536384 5.7889333 13
23.130266 1.9098401 5.6945429 12.875
24.331659 1.8296814 5.7803912 12
15.405038 2.1151857 5.6012201 9
15.613464 2.0952597 5.6083231 12.5
16.4062 2.0615306 5.6219754 13
18.713474 2.0412199 5.630702 14.5
18.942183 2.0868101 5.7077975 12
19.755253 2.0807304 5.7683926 7
20.501915 2.0931356 5.6204367 9.25
20.764046 2.09023 5.6336079 14
20.892536 2.0950735 5.6706095 9.5
21.165775 2.0797937 5.7128139 9
21.25819 2.1006227 5.6580143 13.5
21.52359 2.0952539 5.7638474 10.5
21.732246 2.0903544 5.7867923 9
23.098354 2.0441737 5.7315998 13.5
15.840341 2.2601154 5.6604385 15
13.377538 2.4548657 5.7302966 15
-3.2034714 -1.0180405 5.9064393 2
-3.1211882 -1.0091513 5.90134 4
-2.975992 -1.0327407 5.9821391 0
-2.2334514 -1.017005 5.8113718 4
-1.3388928 -1.0341802 5.9268384 4
-1.0234334 -1.0208768 5.9260316 4
2.3027945 -1.009941 5.9461837 6
-3.2695377 -0.80766332 5.8448529 5
-3.1403573 -0.86026305 5.9157782 4
0.31287175 -0.99255133 5.8002801 0
2.1642177 -0.94983411 5.902617 0
2.9837618 -0.99843889 5.9275589 6
3.4701469 -0.97634238 5.9998918 6
4.2143235 -0.82191467 5.8182054 1
4.4267612 -0.98139864 5.951643 0
5.0389366 -0.99070007 5.8100834 2
5.6364908 -0.95640588 5.9345808 4
6.1566963 -0.92525542 5.9855652 6
9.6422262 -0.92819023 5.8510375 4
10.160803 -0.8900438 5.9248915 3
10.749663 -0.8848002 5.9082365 7
11.013949 -0.89186871 5.9121714 8
12.191331 -0.88391382 5.9751163 10
12.315502 -0.88768435 5.9217968 7
12.504006 -0.8810209 5.85748 7
13.786915 -0.91248393 5.821825 2
14.129519 -0.90282142 5.8980851 4
14.286222 -0.88299423 5.8389454 6
14.447227 -0.91317225 5.8912005 5
14.884906 -0.87872243 5.8974676 6
15.369507 -0.87458128 5.8554316 6
15.691881 -0.88784027 5.8383484 6
15.874907 -0.89623493 5.8711362 6
16.090666 -0.88634074 5.8227186 6
16.299452 -0.88768148 5.9275656 6
16.953493 -0.87367618 5.8215318 6
17.169003 -0.81594867 5.8092499 7.125
17.356838 -0.87304634 5.8053088 8
17.596386 -0.8864786 5.8010015 6
17.668367 -0.88465416 5.9781709 6
18.091278 -0.89133066 5.9460459 8
18.751635 -0.89378011 5.9851718 4
22.950165 -0.82605124 5.9244776 6
24.192488 -0.91308391 5.8642445 7
24.209787 -0.92299128 5.9181972 7
24.5345 -0.87603343 5.8558669 6
24.687828 -0.87328887 5.9282765 6
17.166656 -0.69935226 5.8084621 7.0020599
17.208351 -0.70112085 5.8234367 9
17.865658 -0.61637408 5.8381691 8.0014648
18.041237 -0.61712718 5.882442 10
22.952042 -0.66985697 5.8324251 8.25
23.005459 -0.61317742 5.9163451 10
24.182903 -0.70642829 5.9763784 9
24.226032 -0.64406329 5.9358187 9
17.171953 -0.52721334 5.8216009 8.8333359
17.210897 -0.57150733 5.8237 10.5
17.770468 -0.43133429 5.8336492 10
17.86256 -0.48123956 5.850193 9.5000057
18.022182 -0.53785414 5.918149 10.5
22.958431 -0.4688713 5.8319664 10
24.225183 -0.43614525 5.8972936 11
-3.1339822 -0.32635263 5.9313421 12
17.142914 -0.25270581 5.8137856 12
17.956944 -0.31962425 5.9589596 12
18.029716 -0.38370749 5.9633679 12
22.955677 -0.27429426 5.8631988 12
23.005909 -0.28842705 5.8463497 12
24.194363 -0.37779877 5.8875227 11
24.227823 -0.38473862 5.8994884 11
-3.2201118 -0.16367534 5.832737 14
0.96140301 -0.050984308 5.8687139 7
17.168785 -0.10785598 5.8184061 14
17.202513 -0.0031780899 5.838541 14
18.057331 -0.019201234 5.9435563 0
19.142328 -0.03261736 5.9408784 0
22.956161 -0.084479779 5.8254213 14
24.177719 -0.11825468 5.9412932 13
24.203367 -0.094388977 5.9051151 13
17.17334 0.054122224 5.8242741 1.0507812
17.222591 0.061865658 5.8629351 13.59375
17.865479 0.080537409 5.9458513 1.203125
18.024288 0.055794112 5.864387 14
18.358912 0.015118584 5.9792342 1
19.17815 0.0066932142 5.978734 0
22.960461 0.09928605 5.8568625 1.0126953
23.005924 0.13037688 5.8552265 14
24.175816 0.15903401 5.9380751 0
24.211943 0.18152003 5.9405732 0
24.483263 0.1279875 5.8129001 1
-3.182081 0.2531029 5.8702779 5
16.878162 0.29368737 5.8137259 1
17.148264 0.25897947 5.8216481 3.4843781
17.215714 0.25820172 5.8440685 1
17.959763 0.21721551 5.8265362 1
19.360088 0.24335773 5.9051752 2
22.967937 0.26256329 5.855938 2.9980469
23.007545 0.31777191 5.8301711 7.5
17.160448 0.4907597 5.826211 6.367157
17.201876 0.5371201 5.8728061 3
22.958921 0.47004604 5.8374171 4.9902344
23.015602 0.55070198 5.8715029 1
24.18528 0.46273002 5.9430141 2
24.209129 0.43851295 5.9180889 2
-3.271934 0.69218296 5.96523 11
17.163479 0.69338655 5.8327994 8.8041992
17.206635 0.74797547 5.8576193 4.5
22.957706 0.62979817 5.8437624 6.9912109
23.009251 0.71327513 5.8588629 2.5
24.218433 0.71780956 5.9091511 4
24.718246 0.71305478 5.8736916 7
-3.1549106 0.82417071 5.9541721 10
16.962364 0.92300785 5.8332157 5
17.162926 0.90776485 5.8381271 11.572205
17.203526 0.88550091 5.8794613 4
22.955727 0.83633304 5.8888998 8.9663086
23.01198 0.98829877 5.8283739 5
24.211037 0.96025109 5.8766699 6
-3.1450496 1.0963271 5.9239416 12.5
16.914188 1.1766303 5.8529863 6
17.143738 1.1151198 5.8523512 13.858368
22.96401 1.0389811 5.834619 10.966553
23.008644 1.0760102 5.8582006 4.46875
24.187635 1.0409323 5.9744959 6
24.251608 1.0209533 5.8967476 6
-3.1737423 1.312766 5.9614096 11
-2.6768675 1.3777112 5.9061937 13
16.481823 1.3674196 5.8115921 5
16.889732 1.2314242 5.8553872 7
17.143166 1.2577497 5.8713264 14.683334
17.201773 1.2091882 5.8653255 9
22.954552 1.2837021 5.8743105 13.337891
23.01392 1.2973825 5.8269811 7.46875
24.18598 1.3345187 5.9734607 8
24.217175 1.2650717 5.9071598 8
-3.2029047 1.5026587 5.962894 13
-3.1970437 1.5485265 5.9045339 15
-2.6745741 1.407739 5.9294529 15
-2.5130997 1.4533257 5.9431324 14
-0.88845086 1.4743975 5.8989806 15
-0.11939643 1.4763489 5.8372755 15
2.2357635 1.4243319 5.9717197 14
2.4154663 1.4282665 5.9028196 14
6.4376359 1.5205647 5.9020805 15
6.6995568 1.5202217 5.945713 15
6.9108362 1.5096219 5.9643116 15
16.358143 1.5249617 5.8028531 7
16.407034 1.507229 5.8043528 7
16.894264 1.5138478 5.8598905 7
17.14904 1.4611373 5.8777885 14.714325
17.220953 1.5579972 5.8947129 9
22.957413 1.4621789 5.8408837 14.847656
23.007984 1.5077466 5.8446817 8.5
24.202724 1.5051351 5.9071813 10
11.896163 1.7588947 5.9244366 13.875
15.264295 1.7668455 5.8742642 14.25
16.430552 1.706342 5.8048182 7
16.779495 1.6732665 5.8603144 7
16.824865 1.670555 5.8630362 7
17.166847 1.6627629 5.8809323 13.867062
17.209957 1.7217147 5.8878284 11.5
18.538301 1.7623197 5.8705616 13
21.895664 1.7679355 5.9219456 10
22.964285 1.6588391 5.8506646 14.578125
23.00716 1.7323478 5.8805213 9.75
24.186012 1.6321652 5.9730406 10
24.989368 1.7774398 5.9648209 15
11.904653 1.8443545 5.8913965 13.5
15.248766 1.8808639 5.9738188 14
16.345383 1.8692242 5.8052864 7
16.498188 1.9178684 5.8201513 11.875
16.670639 1.8928407 5.8491807 12.5
16.911434 1.8909761 5.8685241 13.125
17.168339 1.8464203 5.8984995 14.28125
17.207644 1.8642707 5.9009476 11
17.688969 1.8457787 5.8842688 11
22.926239 1.9454285 5.9175658 11.5
23.127411 1.9259346 5.9083796 10.875
23.268574 1.8507588 5.813549 5
24.326664 1.9449418 5.8400545 12
11.903022 2.129786 5.8908763 13
15.251965 2.0588655 5.9801579 14
16.462204 2.0458884 5.8285179 14
17.894371 2.0729089 5.9312406 14
18.183723 2.078752 5.8965464 11
21.173721 2.0358253 5.9848433 8
21.92395 2.0721607 5.82934 9
22.122849 2.096262 5.8522453 10.75
22.319473 2.0717907 5.8855176 9
22.502762 2.0816746 5.9089422 10.5
22.725182 2.0736167 5.9475751 9
22.914085 2.0585771 5.9371142 9
23.019386 2.0305943 5.9466867 7
23.592722 2.0142889 5.9107404 14
-3.1691399 -1.0837781 6.0645828 6
-2.9513757 -1.049731 6.112114 5
-2.6654413 -1.052366 6.1710978 0
-1.8463401 -1.0400742 6.0884356 4
-0.69173771 -1.033855 6.0440569 4
-0.20699303 -1.0218329 6.0222683 4
1.948496 -1.0212044 6.1461611 6
24.156813 -1.0181686 6.1617842 7
2.7438304 -0.998272 6.0472007 6
3.8402309 -0.94724691 6.0380592 6
4.3277535 -0.86812913 6.0075488 1
4.5743332 -0.98253506 6.1879554 0
5.0854645 -0.96939135 6.032989 2
5.7061205 -0.9562571 6.1186037 4
6.449543 -0.92936122 6.0688343 6
8.1784191 -0.93148404 6.1913867 8
9.7086325 -0.96364701 6.0853586 0
10.261396 -0.89116788 6.0613379 1.5
10.982796 -0.88552856 6.1730123 6
11.031681 -0.89132875 6.0266104 5
11.253405 -0.8950671 6.110106 9
11.580921 -0.89094943 6.0118799 10
11.616189 -0.89984643 6.1979232 10
11.861189 -0.88881648 6.0654554 10
12.101117 -0.90578377 6.0497074 5
12.388899 -0.89962071 6.1443729 3
13.340878 -0.88559091 6.1282039 6
13.584473 -0.89587927 6.0674934 4
13.946932 -0.88965398 6.0239172 6
14.333891 -0.89611083 6.0735626 4
14.401234 -0.88371164 6.0104527 6
14.750993 -0.91001987 6.1957154 6
14.816504 -0.9119432 6.0408168 4
15.114922 -0.91253215 6.0211115 4
15.471307 -0.91608733 6.1405544 4
15.714444 -0.88981807 6.0951629 6
15.86682 -0.93628216 6.1919498 2
17.289225 -0.88989776 6.0892091 6
17.774168 -0.88949502 6.1392174 4.65625
17.827532 -0.83237559 6.0651779 6.1328125
18.987812 -0.90303087 6.0487461 6
19.08959 -0.91906995 6.0551996 4
19.419518 -0.88394374 6.1981697 8
19.776102 -0.92381775 6.1315684 4
20.155729 -0.9111765 6.1857338 4
20.570759 -0.90734136 6.1426654 4
20.911619 -0.90369934 6.1725249 4
21.856491 -0.95153242 6.1736679 5
22.119627 -0.90997374 6.1974492 6
22.908504 -0.88569868 6.0357537 6
-3.3118153 -0.65799606 6.1786308 7
17.788424 -0.73946989 6.0214844 6.875
17.877073 -0.72545284 6.1236181 6.5020027
18.3902 -0.71334994 6.0549097 6
19.044533 -0.66418213 6.0769401 7
22.977999 -0.65683138 6.0011945 10
-3.306833 -0.42705834 6.1856194 10
17.792484 -0.43982893 6.1578283 10.125
17.837538 -0.56197834 6.0889435 8.5078125
18.391237 -0.47957045 6.0506282 9
19.055609 -0.50188768 6.0875292 9
17.751427 -0.26059461 6.0246248 12
17.978281 -0.25273788 6.0581036 12
18.023138 -0.23087296 6.1432619 12.000015
18.396248 -0.32381037 6.0814414 11
-3.2634256 -0.031129273 6.1299133 1
1.1181483 -0.0721469 6.1697993 5.5
17.791119 -0.18877597 6.0318761 14
17.917866 -0.10121574 6.1797042 14
18.125904 -0.17947301 6.1099291 13.5
18.362206 -0.01633507 6.056283 0
18.41326 -0.16980502 6.0370932 13
19.031002 -0.17588986 6.1452594 13
-3.2263651 0.18309726 6.1543069 4
17.919891 0.084034875 6.0801916 4.25
18.092068 0.099767022 6.181932 14
18.382446 0.13658594 6.0907321 2
19.191385 0.11958283 6.0871997 2
19.294582 0.16576999 6.0659761 2.5
20.594334 0.18456304 6.1271338 2
22.973171 0.087900475 6.0338588 14
18.348633 0.31175843 6.0427537 4.75
20.563854 0.22333661 6.0368137 2
20.611263 0.21398152 6.1009178 2
22.986992 0.35395592 6.0516601 14
-3.2584157 0.4774313 6.1598492 8
22.971434 0.54052651 6.0693569 1
18.387688 0.61524296 6.0778341 8.5
18.42131 0.74464685 6.0660925 10
22.974834 0.72188199 6.1167984 1
23.002558 0.69248784 6.0509934 1
24.682362 0.65505445 6.1227365 6
24.873112 0.72178322 6.0190792 5
-3.3836975 0.89079481 6.1827421 13
-3.1894608 0.97343898 6.1654282 15
18.377861 0.86448431 6.0500393 12
18.433155 0.88739157 6.0128102 12
23.000528 0.94706035 6.0944672 3
18.369339 1.0206949 6.0666981 14
18.412691 1.0201311 6.0860972 13.5
22.974747 1.0957747 6.0749493 2
23.024364 1.1123767 6.009613 3
24.219337 1.0531075 6.0142732 6
-2.7348504 1.368906 6.1468878 13.5
22.957144 1.2413274 6.0575314 8
23.001162 1.2228134 6.0620847 3
24.245537 1.3622276 6.0043621 8
-3.2228422 1.5072986 6.1180687 14
-2.5477128 1.4084823 6.0659437 14
-2.3491213 1.5759699 6.000504 15
-0.95184517 1.4295472 6.1129031 14
-0.079342395 1.4726125 6.0931416 15
2.2554345 1.4792073 6.1069784 14
6.326757 1.5154917 6.0372376 15
6.4163041 1.520588 6.0611815 15
6.6588631 1.5125666 6.0859957 15
6.8402686 1.5117025 6.1174598 15
7.0920968 1.5113106 6.1164098 15
7.3322191 1.5194013 6.0770669 14
7.5385418 1.518628 6.095717 14
7.699326 1.5147135 6.0799847 14
7.9102955 1.5230596 6.1468763 14.5
8.0235376 1.5069143 6.1442766 13
8.2706995 1.4929142 6.1526251 14.5
8.5449896 1.5084071 6.1775541 14.5
23.003819 1.4922183 6.0610003 5
3.7460222 1.7958721 6.0600715 15
18.525505 1.7691362 6.1120205 9
21.869585 1.7488525 6.0980186 8
22.980022 1.740021 6.0141802 7
23.0352 1.6688991 6.0342674 8.5
24.235842 1.6641743 6.0490656 10
24.988106 1.7746437 6.0289674 13
17.566854 1.8360617 6.0767298 13.5
17.663231 1.8468843 6.1702414 12
18.505632 1.8094471 6.1166339 7
22.996836 1.8112686 6.0383134 5
15.228102 2.1902959 6.0158701 9
18.566412 2.0874581 6.0246444 15
18.831942 2.0900552 6.040051 13
19.287382 2.0894401 6.1382165 15
19.565939 2.0724566 6.1649847 15
21.136364 2.023922 6.0307407 13.25
21.395393 2.0717971 6.1020603 11
21.445768 2.0759559 6.1373234 8
21.604656 2.0662096 6.0634894 7
22.98283 2.0758083 6.0949841 7
15.219904 2.2378182 6.0133324 9
-3.1727645 -1.0370157 6.2373619 5
-2.6282365 -1.0919127 6.3734226 6
-2.1590724 -1.0335971 6.2441616 4
-1.9662495 -1.0370562 6.3361864 4
-0.4403584 -1.0387112 6.3752618 4
-0.24465123 -1.0310761 6.3487754 4
1.6698577 -1.0212044 6.2276406 6
-3.2348528 -0.90139532 6.294795 4
-3.1602459 -0.87593204 6.3201504 5.0625
2.4593716 -0.9725517 6.2280617 4
3.1070747 -0.99968415 6.3717899 6
3.2000463 -0.98348182 6.2080393 6
3.4977024 -0.97809118 6.2883577 6
3.9688766 -0.92360228 6.3323469 0
4.5208783 -0.97166556 6.3607926 0
4.7437239 -0.98756939 6.3858576 0
5.0184269 -0.87236488 6.359797 3
5.2758551 -0.97903591 6.2530904 2
5.4287443 -0.96448338 6.304811 3
6.0704083 -0.92727458 6.3589058 4.75
6.5227947 -0.94471532 6.2239032 6
6.7244439 -0.95720774 6.3020139 6
6.8316574 -0.94796765 6.3633685 6
9.4542122 -0.92005163 6.3394027 2.5
10.571012 -0.90111864 6.3324084 6
10.861306 -0.88648301 6.3999987 10
11.0708 -0.89481252 6.3191233 8
11.247747 -0.89147371 6.3312483 10
11.594796 -0.88295847 6.2954559 6
12.869377 -0.88209867 6.2134633 10
13.460909 -0.90041578 6.2902727 3.5
13.622128 -0.89905024 6.2233105 6
13.812449 -0.91560721 6.2872572 6
14.094645 -0.92547417 6.3257074 3
14.369677 -0.87877959 6.3505263 6
14.494892 -0.8943094 6.2389674 7
14.886751 -0.88769156 6.3019891 6
15.564362 -0.92584717 6.2334042 2
15.687451 -0.90728134 6.29636 6
15.928623 -0.90736073 6.263957 4
16.219696 -0.92247093 6.2996054 4
16.502747 -0.93026507 6.2537766 4
16.896057 -0.89495778 6.37152 6
17.343483 -0.89542931 6.3239293 8
17.509739 -0.89915037 6.3299146 6
17.731903 -0.88477474 6.3603153 5
17.891205 -0.89999342 6.3314972 5.5
18.249031 -0.90859914 6.3419266 7
18.950434 -0.89505124 6.2808361 5.3333335
19.083082 -0.91943061 6.282845 3.5
19.29594 -0.89195257 6.2632265 4.625
19.592949 -0.90108079 6.3474917 4
19.667768 -0.91088092 6.3709621 3.5
21.030409 -0.88858157 6.2966156 4
21.319345 -0.91209054 6.2323232 4
21.458633 -0.89356267 6.3836756 4
21.798023 -0.89904201 6.2676578 4
21.962742 -0.89061135 6.3665724 4
22.126495 -0.92048681 6.2636728 4
22.471821 -0.90914422 6.3231611 5
22.8762 -0.91406381 6.3764358 4
24.463097 -0.89037633 6.2159443 6
-3.2120576 -0.60791183 6.2447882 8
-3.1606154 -0.76875734 6.265748 6.125
17.766539 -0.73601168 6.2324214 6
17.814903 -0.72001147 6.3005838 7.0175781
18.999617 -0.79638129 6.250576 5
24.419392 -0.62749946 6.3851714 8
-3.3798451 -0.41173354 6.229073 10
-3.1814828 -0.4684785 6.2822504 9.75
17.781269 -0.51886123 6.3147745 8.75
17.811146 -0.43411824 6.2448854 10
24.350048 -0.44642699 6.3202505 10
-3.1492543 -0.24172248 6.2901821 12
17.743069 -0.24923946 6.3482757 12
17.928078 -0.20326033 6.2287736 14
18.970575 -0.33568674 6.2410831 11
19.017811 -0.32329333 6.2415762 11
-3.210351 -0.16610754 6.2573466 14
-3.1454101 -0.066624038 6.3487196 14
17.861898 -0.0082596019 6.3413486 14
19.085962 -0.014909819 6.3043747 0
-3.2548501 0.020005926 6.3110595 1
-3.1568613 0.12740618 6.321938 1
17.873873 0.02138037 6.2920513 14
18.117847 0.062070031 6.3634367 7.5
18.66267 0.10292878 6.2662926 1
-3.2911072 0.26346895 6.284255 5
-3.154408 0.25886515 6.2933979 3
24.296707 0.2779811 6.2905383 3
-3.2742531 0.44687867 6.3397827 7
-3.1596012 0.57926702 6.2938251 6.5
24.562176 0.54520506 6.2898808 5
-3.203481 0.71283811 6.2841768 7
-3.1579583 0.78921515 6.3914013 7
-3.2312045 0.82021749 6.3067565 11
-3.164784 0.96684301 6.3007293 13.78125
-3.2614491 1.0865412 6.2739511 14.25
-3.1842356 1.0779549 6.3082752 11.5
22.951227 1.0740006 6.2362285 3
-3.2190576 1.2846384 6.3487511 13.5
-3.1399093 1.2527765 6.3094349 15
-2.7482357 1.3575966 6.3744783 12
-2.595315 1.3928355 6.2430191 15
-0.78954041 1.3909452 6.2693214 15
-0.22440383 1.3928792 6.3350077 15
-0.040374011 1.3517425 6.2901745 13
22.934441 1.2321022 6.2824688 3
-3.2597361 1.4911308 6.3686996 13
-2.5670204 1.4385598 6.3055439 14
-2.3606312 1.5722786 6.3020515 14
-0.97797501 1.4268667 6.213232 13
-0.78189188 1.4077127 6.3561869 13
-0.064437754 1.4401294 6.2647533 14
2.1766768 1.4814733 6.385787 15
2.2816434 1.4655409 6.3244538 14
7.3464384 1.512683 6.2025247 15
7.5552697 1.5295947 6.2297268 15
7.9363661 1.5497839 6.2632728 15
8.0756702 1.5505669 6.3059106 14
8.3010254 1.4949777 6.3078055 14.875
8.5192986 1.5328298 6.3192654 14.625
8.6516695 1.5197942 6.3495903 14.875
8.8884993 1.5510416 6.345674 13.833334
9.0963802 1.4889398 6.3066845 12.5
9.3089447 1.5142131 6.2961817 12.5
9.530056 1.517575 6.3133612 13.75
9.6718445 1.509726 6.3393283 13
9.9075565 1.5087745 6.3513041 15
10.102345 1.5053922 6.3876905 13
-2.3256891 1.6258869 6.3357182 15
3.7587049 1.7925118 6.3574314 15
15.185992 1.7502286 6.3664789 10.5
15.230247 1.7419688 6.3657222 15
18.491037 1.7734529 6.2442532 13
23.060572 1.6457238 6.2433939 12
24.958845 1.7626343 6.3036528 13
9.6320438 1.8806167 6.2816796 15
15.223574 1.8636 6.3454156 14
16.062376 1.9796938 6.335587 15
17.12693 1.8825593 6.2162271 13
17.569742 1.8857656 6.268064 13
17.685854 1.804315 6.2041082 9
18.453066 1.8641088 6.3922081 13
19.850473 2.1429386 6.2189198 15
20.055878 2.0922213 6.227438 14
20.288481 2.0744333 6.2524557 13.75
20.493389 2.0652094 6.2957993 10
20.698174 2.0746446 6.3271842 13
20.882286 2.081068 6.3591671 10.5
21.137474 2.0766244 6.3874483 13.5
15.194603 2.2511365 6.3447371 9
15.230173 2.315496 6.3824353 14.25
15.224473 2.4637704 6.3839364 14
-3.2303696 -1.0722324 6.4523253 2
-3.1628213 -1.0128725 6.4117851 6
-2.458529 -1.0950414 6.4619293 6
-1.7230269 -1.0429858 6.5049028 2
-1.4385806 -1.0408314 6.5997105 2
1.157346 -1.0524912 6.5436072 6
2.0562525 -1.0292727 6.5334978 6
2.2796226 -1.0094854 6.453526 0
-3.1756675 -0.89525223 6.5633359 8
2.8926117 -0.98139101 6.4671526 4
3.4256659 -0.97546297 6.436595 4
3.602406 -0.98184359 6.4723468 6
3.9154105 -0.91421121 6.5439072 3.5
4.3032007 -0.95712376 6.4819617 6
4.5673728 -0.97851497 6.4991636 6
4.7654934 -0.97757852 6.5452919 3
4.9265866 -0.99407297 6.5848131 0
6.1455774 -0.93707174 6.5477381 4.75
6.395956 -0.93304712 6.4266367 6
6.5366812 -0.95510679 6.5003448 6
6.7398834 -0.96368635 6.5430813 6
6.8212709 -0.94809043 6.5192251 6
7.1055055 -0.96353692 6.4069443 6
7.81708 -0.92649031 6.4209194 8
8.1376038 -0.93201524 6.5197573 8
8.2655811 -0.93843848 6.4762573 8
8.4805431 -0.93491471 6.585062 8
8.7787914 -0.91071099 6.4979115 2
9.2232208 -0.91158533 6.4893126 2
9.5417156 -0.91437662 6.4276819 2
10.280454 -0.91603744 6.4679699 6
10.44541 -0.9435997 6.5826769 8
10.694048 -0.91875499 6.5077534 7
11.080918 -0.89076912 6.5127029 8
11.269239 -0.90768397 6.5085268 7
11.521704 -0.90903229 6.5246305 4
11.645204 -0.91607791 6.508193 6
11.858767 -0.91117722 6.4973621 8
12.091576 -0.89866334 6.4229927 8
12.541411 -0.89683372 6.4662533 4
12.724018 -0.89512956 6.5311556 6.666667
12.988136 -0.89931536 6.5226092 4
13.729301 -0.90340465 6.5910654 3
13.944886 -0.91810775 6.5781703 6
14.139156 -0.93434846 6.4768014 0
14.388316 -0.94906873 6.4884448 0
14.419469 -0.90935975 6.4956832 8
14.678896 -0.93169141 6.4682503 3
15.148173 -0.93313104 6.4910297 3
15.342489 -0.90633392 6.4921207 7
15.815898 -0.91564006 6.4171538 6
16.043055 -0.91152215 6.5316648 6
16.310064 -0.91677964 6.5229702 6
16.708414 -0.91271335 6.5305367 6
17.193052 -0.9081232 6.4185376 6
17.767874 -0.87807602 6.5144343 5
17.882469 -0.85001689 6.447257 5.2539062
18.119442 -0.90436625 6.4895067 6
18.248823 -0.90103579 6.525423 6
18.461697 -0.90179521 6.428586 6
18.724897 -0.89714158 6.4486265 8
18.9326 -0.91214788 6.5750499 6
19.239727 -0.85322511 6.5026112 4.109375
19.416985 -0.90435731 6.5878668 7
19.687918 -0.90496802 6.465126 6
20.038794 -0.89616466 6.5297108 6
20.275885 -0.90671676 6.5222616 6
21.755211 -0.90660346 6.5772953 8
21.942539 -0.98369932 6.5483689 5
22.001131 -0.9068709 6.5550966 6
22.450571 -0.94724929 6.5242453 5
22.900669 -0.88554752 6.5692105 4
23.148466 -0.90387863 6.5540471 4
23.918358 -0.88794893 6.5685682 6
24.362576 -0.90016198 6.5849071 6
-3.2224071 -0.77835226 6.4892139 6
-3.1848373 -0.63065898 6.4667449 10
17.725986 -0.71118736 6.471158 6.15625
17.861931 -0.75100213 6.5637312 6.5637207
18.985229 -0.69571167 6.5110254 6
19.011633 -0.61057192 6.5668116 7
22.89222 -0.73738778 6.5467243 6.3125
24.368776 -0.64390558 6.5490761 8
-3.1739144 -0.50354689 6.4519358 10
17.748447 -0.41411459 6.490706 10.000977
17.808697 -0.50238693 6.55548 10.03125
19.031727 -0.4653576 6.4538221 9
22.874153 -0.51833016 6.5612221 8.916667
23.035736 -0.51110494 6.506073 9
-3.2324011 -0.35945067 6.4533086 11.5
-3.1665621 -0.27731663 6.4326611 12
17.70153 -0.31273371 6.4782519 11.166668
17.837074 -0.38995534 6.5117226 12
18.083731 -0.24158636 6.4159212 14
22.877087 -0.320948 6.5886636 11.25
-3.2444952 -0.17639911 6.4175324 14
-3.1665006 -0.054099619 6.4505968 14
1.3166877 -0.066093296 6.4655585 6
17.735668 -0.17463721 6.5422049 14
17.86018 -0.035254117 6.4761767 14
18.092222 -0.0062713306 6.5419836 7.5
19.053047 -0.075064607 6.4685817 3.25
19.271671 -0.0027988702 6.5611281 1
22.878315 -0.10257265 6.5924749 14
-3.2154069 0.02148699 6.4402142 1
-3.162015 0.09229324 6.4502325 1
18.09391 0.030665979 6.4750519 14
18.297136 0.037431136 6.4980855 14
18.570068 0.072916999 6.4432535 14
18.693201 0.066627346 6.4911757 14
19.292179 0.024907678 6.5170107 1
20.540205 0.024926364 6.5261559 0
22.930414 0.031077649 6.5439382 7.5
23.233776 0.019490629 6.5734472 1
24.346115 0.18231124 6.4569502 1
24.467253 0.19316441 6.5692616 1
-3.1789706 0.27959833 6.4526253 4
22.88023 0.33200836 6.5525227 6.166667
23.026024 0.24328856 6.5540042 4
24.324848 0.29060706 6.4719839 3
-3.1750646 0.47548521 6.4561539 6.75
22.886253 0.50198305 6.5615625 4
24.519115 0.44892147 6.5057335 5
-3.266736 0.77823979 6.5125751 12
-3.1813798 0.73218524 6.5015392 7.875
22.892712 0.65584975 6.5571227 5
-3.2807887 0.9679004 6.4817343 13
-3.1786971 0.87417245 6.4948673 10.25
22.896177 0.95492148 6.5381913 8
-3.3181057 1.1200708 6.4815402 14.5
-3.1807792 1.0740864 6.5187588 11.5
22.922789 1.0944716 6.5787101 3
-3.1636031 1.2920213 6.4634943 14.4375
-2.6655116 1.3599325 6.5110168 13.666667
-2.5999086 1.3532771 6.5390115 11
-0.86217296 1.369138 6.4699368 14
-0.24237721 1.3703214 6.5039444 13
22.920769 1.2261693 6.5862169 3
-3.2886579 1.4812474 6.4492216 14.333333
-3.1766253 1.4536533 6.4581885 14.375
-2.506649 1.5029792 6.4930525 14.5
-2.3489594 1.5524961 6.4057999 13
-0.94467449 1.4548053 6.5110712 14
-0.21331878 1.4284015 6.4902124 13
2.1574991 1.4040176 6.5049543 13
2.3165689 1.4095589 6.493866 14
8.9407444 1.5751858 6.4144397 14
9.1307364 1.4644676 6.4322052 13
9.2032833 1.5893461 6.4520144 13
9.4882565 1.5411227 6.4756227 12.875
9.6695461 1.5209961 6.4941425 14.375
9.9345188 1.5340676 6.5091057 14.25
10.110412 1.5512468 6.5289831 13
10.314173 1.5495963 6.4639959 14.6875
10.555265 1.5165699 6.4800596 12
10.762081 1.5143173 6.5267439 12
10.857723 1.5216048 6.4844551 14
11.055567 1.536072 6.5210094 14
11.318826 1.5371739 6.5616989 12
11.459175 1.5115325 6.5865431 12
-3.2270091 1.6027062 6.4343028 15
8.4275541 1.6839092 6.5816803 13
10.372456 1.7988256 6.4403224 13
10.517576 1.6200681 6.590291 15
15.160261 1.7413793 6.5745726 13
18.455212 1.7190855 6.5365872 13.25
21.8228 1.7562125 6.4331985 9
22.928694 1.65442 6.5607228 5
23.030592 1.6961564 6.4674139 14
24.916235 1.7584059 6.4921241 13
16.992973 1.8274566 6.4812865 7
17.538723 1.9009751 6.5550413 15
17.649618 1.811173 6.4598856 12
18.478859 1.8829687 6.4115787 12.375
22.886351 1.9658358 6.5854959 5
9.6269712 2.0782597 6.445653 15
13.650126 2.1229286 6.4439034 13
18.463184 2.0232005 6.4319606 13
20.261086 2.1189055 6.5299993 11
21.26021 2.0567589 6.4209719 9
21.541182 2.0697746 6.4417629 13.125
21.737183 2.0516257 6.4760985 9
21.851009 2.0671077 6.4843321 10.5
22.130253 2.0565691 6.5050802 9.5
22.309731 2.0554347 6.4600787 8
13.250365 2.5083776 6.4507365 13
15.59827 2.5740397 6.4574494 13
-3.2200203 -1.0514388 6.6342449 4
-3.142597 -1.0689957 6.6513987 2
-2.7505634 -1.1001643 6.782732 6
-2.5053666 -1.061348 6.6794977 1.75
0.19654071 -1.0681347 6.7410722 6
0.40605742 -1.0656317 6.7158689 6
1.0319004 -1.013831 6.7539563 4
2.7642274 -1.0209618 6.6812801 6
3.4410849 -1.0029495 6.7302461 6
4.1583023 -1.011079 6.6948209 3
4.5677905 -1.0032356 6.731112 6
5.4186463 -1.0107813 6.7328534 5
-3.3118701 -0.98652977 6.7888422 4
1.526553 -0.98224473 6.6818094 4
2.5707307 -0.99537331 6.754487 4
3.1681325 -0.99655724 6.6089392 6
3.936465 -0.95267063 6.7326097 2.5
4.2792792 -0.97902691 6.7410679 3
5.1201172 -0.98022592 6.6781006 3
5.4883404 -0.96253872 6.6054468 3
5.6266317 -0.96857893 6.614327 4
5.8536897 -0.96030426 6.7258973 3.25
6.1959138 -0.9661516 6.7824135 6
6.4195089 -0.9786045 6.6208382 4
6.6324844 -0.98788977 6.7882023 4
6.8358688 -0.96843684 6.7505302 6
7.1920261 -0.96687812 6.7471671 6
7.5121875 -0.9681986 6.7928944 6
7.8075991 -0.93680328 6.7893062 8
8.1583967 -0.92988235 6.6161075 8
8.2075052 -0.94374233 6.7121234 8
8.6787138 -0.90216857 6.6561503 2
9.1103573 -0.97000033 6.6399927 0
9.2621708 -0.90131897 6.6339064 4
9.5227518 -0.93432713 6.7273383 6
10.713886 -0.90360767 6.6096807 6
10.847858 -0.91618496 6.6877546 6
11.288399 -0.89930344 6.7270021 8
11.437517 -0.90914476 6.6515417 5.5
11.682186 -0.91256297 6.6790214 8
12.008299 -0.91401404 6.664587 6
12.911677 -0.90828085 6.764164 6
13.16794 -0.93501884 6.7415967 8
13.680414 -0.91716164 6.6131692 8
14.15274 -0.91840881 6.7307878 5
14.486288 -0.89832795 6.6640158 6
14.695913 -0.90138191 6.695015 6
15.006669 -0.91303319 6.7020092 6
15.321893 -0.91223478 6.6609044 5.5
15.5268 -0.93275583 6.6870952 3
15.837177 -0.93352497 6.7015052 3
16.202734 -0.98130524 6.6719303 0
16.992359 -0.90684253 6.6795783 6
17.93784 -0.92420995 6.7287397 8
18.119732 -0.91348815 6.7968783 6
18.380259 -0.91150975 6.6087928 2
18.504921 -0.91865826 6.699563 6
18.714573 -0.89956403 6.712873 6
18.930662 -0.90272361 6.6705389 4.75
19.103403 -0.91409868 6.6557274 2.5
19.328985 -0.82134551 6.6768136 4.1796875
19.444344 -0.89676678 6.6553164 4
19.762344 -0.91239715 6.7781715 7
19.80584 -0.94097245 6.7510986 2
20.224354 -0.91722196 6.7458162 4
20.468611 -0.92481279 6.6660194 4.5
20.692501 -0.9403913 6.7305126 3
21.67341 -0.91355234 6.6606741 8
21.937813 -0.92955148 6.7880874 10
22.104939 -0.91650164 6.6570387 6.5
22.261396 -0.91670036 6.7909474 6
22.555031 -0.91479254 6.6115737 6
22.719013 -0.91838491 6.7763467 6
22.877884 -0.85252547 6.6034193 6.5
23.523245 -0.81945658 6.7238741 10
23.711647 -0.8352229 6.7137985 6.5
24.120354 -0.87756872 6.7208819 7
24.465609 -0.89868152 6.7191429 6
24.913967 -0.90714753 6.7966695 7
-3.287019 -0.66296965 6.6649232 8
17.696285 -0.62548459 6.6430864 10
18.942114 -0.74061412 6.7137728 5
19.353292 -0.78619409 6.6993918 12
22.870914 -0.72226393 6.6057072 6.3828125
23.50144 -0.66977453 6.7084932 10
23.711205 -0.74595249 6.6893229 6.0732422
24.109442 -0.68130851 6.7010059 9
24.253628 -0.67663717 6.784935 8
24.886478 -0.63436615 6.7776756 9
-3.4412861 -0.52439904 6.6954308 10
-3.2456076 -0.47845498 6.6198649 10
17.686115 -0.544976 6.625659 8.078125
17.813351 -0.56139553 6.6088977 12
18.924561 -0.46014878 6.7960997 9
22.858814 -0.51290053 6.6249328 8.75
23.39629 -0.44137713 6.6296349 10
23.488691 -0.59529245 6.655467 8
23.668308 -0.56019896 6.7126837 8.3125
24.126091 -0.55553532 6.7420354 9.5
24.277733 -0.53365612 6.7335296 8.75
24.423923 -0.59021777 6.6590939 10
-3.3064768 -0.20642731 6.7773495 14
17.723839 -0.27051392 6.6793871 11.500061
17.857773 -0.23739302 6.6869202 12
18.946362 -0.3246122 6.7180648 10.75
22.893639 -0.26144212 6.6071267 12
23.144905 -0.31369233 6.6432343 12
23.381845 -0.32911766 6.7198758 12
23.547367 -0.31955999 6.7361479 12
23.696445 -0.32461077 6.7284808 11.25
24.123543 -0.3548775 6.7163286 11
24.275391 -0.28709203 6.7698865 11.666666
24.430035 -0.2614454 6.7929306 12
-3.286953 -0.053754449 6.691452 1
-3.1947026 -0.12872896 6.6470056 14
1.4978006 -0.061038114 6.7623715 7.666667
17.758831 -0.15688142 6.679759 14
17.918674 -0.16713086 6.7665935 13.5
18.086487 -0.02267888 6.6877174 14
18.511623 -0.019564606 6.7250462 7.5
18.687145 -0.0082141347 6.6814423 14
18.886051 -0.016580839 6.743329 7.5
19.077261 -0.054725774 6.712276 3.75
20.142456 -0.0094456524 6.7123446 0
22.901974 -0.10392644 6.6200161 14
23.589565 -0.053562209 6.7414827 14
23.706234 -0.10519981 6.7193046 14
24.12508 -0.10339475 6.7411852 13
-3.2870636 0.11694416 6.6499853 2
18.326731 0.025878251 6.6435556 14
18.555901 0.031986549 6.6076212 14
18.736023 0.0384348 6.6378832 14
18.857086 0.018519916 6.6930814 14
20.0734 0.0079813898 6.653924 0
20.529778 0.0029936135 6.6518412 0
22.875034 0.12169108 6.6243033 2.0015869
23.055693 0.11916611 6.6936989 14
23.229242 0.029389411 6.7196131 14
23.524324 0.095379174 6.7502103 14
23.69025 0.053734578 6.7464399 1.0015869
24.120417 0.15351361 6.7557611 0
24.749239 0.16995943 6.7955804 0
-3.3359966 0.25187275 6.6006594 5
-3.1933131 0.38760012 6.6709337 3
22.864611 0.24071679 6.6216817 2.9984436
23.06271 0.37427953 6.709815 7.5
23.310226 0.3823806 6.7426147 7.5
23.667421 0.27464473 6.7392035 3.7488403
24.130802 0.3929092 6.7297153 2
24.373779 0.2249309 6.7953825 3
24.437489 0.30244306 6.7371831 2.75
-3.2953584 0.45521197 6.6642132 7.6666665
22.87009 0.48968172 6.6156206 6.6862793
23.065979 0.49827307 6.706708 1
23.350719 0.53578818 6.732564 1
23.486397 0.49575189 6.7475061 1
23.673372 0.5027371 6.7508512 6.6228027
24.132425 0.43580109 6.7744827 2
-3.2064819 0.64948457 6.6954427 5
-3.1846352 0.64793468 6.6059036 5
22.860508 0.74039805 6.6190453 10.308481
23.083672 0.65489376 6.7207546 1
23.336699 0.65524387 6.7456789 1
23.499893 0.68131691 6.7554541 2.5
23.68626 0.68479973 6.7604423 8.8395691
24.129711 0.67248774 6.7426085 4
-3.1996405 0.90890163 6.6751752 7
22.864754 0.86254179 6.6404848 10.933044
23.168783 0.96971351 6.7239704 3
23.340071 0.96932149 6.7752934 3
23.475258 0.91753757 6.7598829 4
23.687412 0.8571831 6.7520685 10.857422
24.124672 0.93141162 6.7511387 6
-3.2393343 1.1001627 6.6671972 12
-3.193634 1.1456661 6.6152334 9
22.859356 1.0567195 6.6321154 14.197142
23.111736 1.1396281 6.7450132 2.875
23.326363 1.1454117 6.7636847 4
23.486633 1.1340172 6.7871313 3.5
23.673689 1.0843043 6.7725306 13.773926
24.150747 1.1507608 6.7392011 8
-3.1949561 1.2968944 6.6042857 11
-2.8085823 1.3481992 6.7137899 13.5
-0.89956439 1.3536955 6.7547846 13.5
-0.2583088 1.3660989 6.7095394 13.5
2.1247518 1.3822917 6.7343464 12
2.2922332 1.3688288 6.7048087 11
22.858034 1.2768164 6.6681604 14.788567
23.088192 1.252084 6.7459064 3
23.275303 1.2601179 6.779542 3
23.413872 1.3946593 6.7697024 7
23.655298 1.2832088 6.7829342 14.681152
24.143869 1.2434613 6.7758226 8
-2.601439 1.4092727 6.6004987 13
-2.3180361 1.5631844 6.7888036 15
-0.99921501 1.4542322 6.7997723 15
2.1405516 1.4577534 6.6468945 14.5
2.2913945 1.4047121 6.7303233 13
4.2678061 1.5443568 6.6058502 13
5.2229018 1.5829077 6.7391334 15
10.376467 1.5697142 6.6106915 11
10.505405 1.5555656 6.6174717 13.75
10.694383 1.539408 6.6377306 11.5
10.941389 1.5307324 6.6619291 13
11.096121 1.5518727 6.6967173 12.5
11.268904 1.5440007 6.7281575 13.75
11.494928 1.5526534 6.7307611 13.5
11.736126 1.5304282 6.675457 11
11.841835 1.5323523 6.6863699 12.5
12.072692 1.5324223 6.6893058 11.5
12.297657 1.5247253 6.7067966 11.75
12.513478 1.533175 6.7348924 11
12.668921 1.5337279 6.7615576 13
12.89255 1.5278542 6.7901578 13
22.862122 1.5014286 6.6823411 14.295898
23.290373 1.4829863 6.761755 7
23.522543 1.5863237 6.7872024 9
23.664898 1.4852557 6.7908583 14.4375
24.134842 1.4626154 6.740489 10
-3.4210665 1.7112011 6.6840534 14
3.7184179 1.772401 6.6681499 14
10.762942 1.622254 6.6348476 15
11.179834 1.6069754 6.6977677 15
11.463172 1.6150844 6.7504992 15
11.768105 1.648118 6.7466145 14.5
18.428455 1.7575059 6.7773409 13.25
22.867811 1.6637487 6.7034855 14.554199
23.051712 1.689999 6.6632338 11.25
23.287754 1.7743168 6.7926407 5
23.579685 1.7939589 6.7523656 13
23.929802 1.6943491 6.7558136 14.5
24.079615 1.6744335 6.7679396 12.5
24.910397 1.7457012 6.7073278 12.5
4.2594976 1.932245 6.6408005 15
17.02994 1.8499426 6.6726542 13
17.597078 1.8068657 6.6508708 9
18.437578 1.8572986 6.7779741 13.625
22.915792 1.8921334 6.6889219 12.125
23.174606 1.8512943 6.7557654 15
23.265915 1.9010279 6.7259464 12
23.465954 1.8459349 6.7982287 15
24.102512 1.8714173 6.7680178 13
13.470494 2.0977497 6.7418957 13
16.387239 2.179034 6.7583942 13
20.236416 2.1054802 6.6466331 13
22.991604 2.0248914 6.748795 7
-3.2584295 -1.0876781 6.9230347 4.5
-2.9713547 -1.0704463 6.9062309 4
-2.4004209 -1.0586162 6.8157868 0
-2.0128338 -1.0539893 6.9756956 4
-1.9090036 -1.0470796 6.8177152 0
-0.80921644 -1.0564042 6.827775 2
-0.76489168 -1.0291185 6.8919911 4
-0.32472146 -1.0837781 6.8349957 6
0.75080335 -1.0178738 6.8229914 4
1.0416715 -1.0336065 6.9437714 2
1.4616274 -1.0349283 6.9774089 0
2.9997835 -1.003137 6.9773083 6
5.4689016 -1.0291098 6.9237905 5
6.0793729 -1.0007973 6.8070645 2
8.8075809 -1.0072253 6.9965076 4
16.73905 -1.0562731 6.8977571 0
17.114681 -1.0031216 6.9819355 0
24.625334 -1.0390366 6.8390946 7
-3.3601949 -0.84526569 6.976408 6
1.7610382 -0.99883449 6.9855447 4
1.9175349 -0.990381 6.8792787 4
3.5487962 -0.99565619 6.9020796 3
3.7062018 -0.96605158 6.9540653 0
3.8510685 -0.95653021 6.886591 7
4.5060472 -0.98325408 6.8398104 6
4.7270136 -0.93052757 6.9436045 4.5
5.0635529 -0.98637801 6.9391356 3
5.3070598 -0.99569309 6.936944 0
5.8700886 -0.95722383 6.8344951 5
6.1745448 -0.89818358 6.885088 5
6.2837124 -0.97258043 6.8876319 3
6.5451765 -0.96976727 6.8375015 6
6.7356424 -0.97296333 6.9608679 5
6.9681983 -0.97808343 6.9611034 6
7.0804453 -0.97654903 6.9570322 5
7.3184528 -0.98680198 6.9146624 6
7.7208157 -0.90600222 6.9104013 6.5
8.1490965 -0.94242245 6.9366875 8
8.368207 -0.94876349 6.880074 8
8.4845772 -0.92187977 6.8993411 1
8.7968006 -0.97578663 6.9045148 4
8.9216595 -0.95530546 6.8210812 8
9.1460562 -0.9432469 6.8874354 8
9.3619747 -0.94827873 6.9222002 8
9.4817057 -0.93744928 6.9372683 8
9.6382723 -0.94137275 6.8955283 6
9.8528996 -0.92980134 6.8419728 7
10.076385 -0.93097872 6.9358902 7
10.51864 -0.94178873 6.803988 8
11.166125 -0.90392536 6.9611197 10
11.459665 -0.91360605 6.9329381 5
11.717974 -0.91376013 6.8775434 4
12.088571 -0.93847597 6.9246473 6
12.286866 -0.91197324 6.8907609 8
12.428101 -0.9143889 6.9584823 10
12.834706 -0.89697629 6.8064361 8
13.121359 -0.92825437 6.9156418 6
13.483063 -0.91783035 6.8299723 4
13.706511 -0.91075307 6.8048887 8
14.094053 -0.92255968 6.9390788 5.5
14.562052 -0.91815484 6.8793974 6
14.860153 -0.9113791 6.929285 6
15.4837 -0.92852485 6.9002619 6
15.753896 -0.92464912 6.9041004 6
16.119884 -0.91873509 6.8910646 6
16.319798 -0.92795038 6.9288716 6
16.510769 -0.95234883 6.8541975 3
17.010599 -0.93187642 6.9045687 6
17.236658 -0.92531615 6.9048638 6
17.466339 -0.92083561 6.8396182 5
17.983952 -0.92357534 6.935462 6
18.271202 -0.91287577 6.9212523 6
18.634888 -0.9219408 6.9806576 7
18.839567 -0.9144569 6.8954563 7
19.672272 -0.91332054 6.899662 9
20.303905 -0.91133833 6.9071379 4.5
20.485229 -0.90982819 6.8098564 3
20.656898 -0.92698926 6.855464 4
20.965889 -0.93857563 6.8448472 2
21.074905 -0.94203544 6.960114 3
21.358002 -0.93986642 6.8027024 2
21.692669 -0.90623212 6.954145 7
22.136538 -0.93893743 6.9563255 5
22.474483 -0.93562293 6.9332523 4
22.748714 -0.95445371 6.8151164 5
22.843849 -0.92088675 6.9186344 6
23.093777 -0.97389102 6.8980017 5
23.229729 -0.85580885 6.9445457 10
23.915203 -0.90088034 6.8807678 6
24.244614 -0.88719165 6.9380064 4.640625
24.924206 -0.94744343 6.8480773 7
17.763048 -0.61263025 6.8562822 10.5
17.858313 -0.66834158 6.881155 12
18.243771 -0.60581267 6.8863487 6
18.504065 -0.62434208 6.9794474 6
18.97389 -0.67444187 6.8764391 5
24.239365 -0.73494589 6.8269615 6.281467
24.91885 -0.67604649 6.849865 9
-3.3035166 -0.47815323 6.8854222 10.5
17.745884 -0.54810143 6.8459148 9.03125
17.955824 -0.55653477 6.8823266 8.5
18.04471 -0.53719425 6.9258451 7
18.954603 -0.51407284 6.8611588 7.6666665
24.297745 -0.45024306 6.9275045 10
24.862938 -0.45252657 6.882875 11
-3.2726724 -0.20649981 6.9428973 14
17.773705 -0.27134532 6.8516169 12
17.922684 -0.30442074 6.8700228 11.003906
18.072525 -0.24710982 6.8420486 12
18.97422 -0.28854921 6.9765244 11
19.057648 -0.27754623 6.9323349 11.9375
19.298395 -0.24583817 6.9340744 12.375
24.312973 -0.24848536 6.8246374 12
24.430897 -0.25181177 6.8214817 12
24.9249 -0.36654055 6.8368597 11
1.63648 -0.082419246 6.980689 5
17.921339 -0.1645375 6.9001341 14
18.113512 -0.17952286 6.9309993 14
18.306379 -0.13024674 6.9718375 14
18.496538 -0.030789614 6.8036852 1
18.733185 -0.03004992 6.8350468 14
18.936161 -0.070514441 6.9211798 14
19.171095 -0.16080041 6.9300303 14
19.267403 -0.10563481 6.8692131 14
24.220144 -0.10927507 6.8248625 14
24.914848 -0.09416315 6.8433819 13
24.952906 0.17641354 6.8933764 0
23.782019 0.2005038 6.8070822 14
24.379364 0.20923972 6.8066058 1
24.422924 0.23395048 6.8360806 2
24.656013 0.23161663 6.9662671 3
24.90513 0.21455114 6.8485141 0
23.681345 0.55292457 6.8021669 1
24.102499 0.41061026 6.8055449 2
24.718102 0.44760901 6.8771744 2
24.931965 0.4719094 6.8398371 2
-3.3699701 0.74107933 6.9966259 11
23.683893 0.68426394 6.8138213 1
24.148386 0.6961996 6.8202548 4
24.701691 0.74607086 6.8896842 4
24.940468 0.75433612 6.8417501 4
-3.412487 0.91019207 6.9093037 13
-3.3338974 0.89840305 6.9830828 13
23.696978 0.99488842 6.8402195 3
24.139526 0.9797551 6.8310194 6
24.926435 0.99604094 6.8196068 6
23.599619 1.176553 6.8044829 3
23.687778 1.1073711 6.8086534 6.5
24.687181 1.0456572 6.9030185 6
24.895452 1.0720007 6.8715377 6
-3.2954228 1.2154959 6.9307766 9
-2.8190923 1.345679 6.8345022 12
-2.6455164 1.3870845 6.9063144 11
-0.9123373 1.3222549 6.8341575 11
-0.29097423 1.3453064 6.8958902 13
2.1154971 1.3677628 6.8043742 11
2.2656054 1.3812127 6.9431992 13
23.581604 1.2563149 6.8071327 3
23.668694 1.3000212 6.8082356 4.5
24.139431 1.2671314 6.8377604 8
24.955635 1.3267646 6.8596797 8
-3.4602509 1.5675234 6.9263082 15
-3.3437123 1.4966519 6.9188828 13
-2.6429372 1.4111788 6.8412633 14
-2.4589109 1.5506427 6.9882545 15
-2.3215921 1.5478715 6.88025 13
-1.0149686 1.4339055 6.9643455 13
-0.22453819 1.455647 6.90523 15
2.0877118 1.4988493 6.97543 13
4.2364459 1.508023 6.9165182 11
4.9879055 1.5213557 6.8770118 13
11.848841 1.5367103 6.8070426 13
12.161684 1.5714476 6.8538909 11
12.254021 1.5443292 6.866601 12
12.489662 1.5281062 6.8931141 11.75
12.664278 1.5389431 6.8556042 14.5
12.940561 1.5681515 6.954123 13.75
13.093596 1.5418105 6.8983116 14.555556
13.327828 1.5556669 6.9278235 12.333333
13.531995 1.5329189 6.891221 13.5625
13.888727 1.5307796 6.9697075 11.75
14.075506 1.5359216 6.9653611 10.5
14.281207 1.5289872 6.9824119 12.5
23.682564 1.5040798 6.8116035 10.5
24.132921 1.5566097 6.8459496 10
-2.3239217 1.727392 6.8672528 14.5
0.098394096 1.6395826 6.9904995 15
3.6820247 1.7540401 6.8891525 13
11.719415 1.7612973 6.8343158 11
12.186818 1.6198568 6.8393087 14
17.581556 1.7953391 6.8211288 15
18.421303 1.692107 6.8795538 7
21.710831 1.748656 6.8614521 11.5
23.041561 1.7313675 6.9505248 14
23.31646 1.7443836 6.804286 5
23.578625 1.6934285 6.8035092 14
23.644051 1.7101697 6.8218775 12.75
23.888689 1.7506378 6.8440304 11.375
24.024563 1.7193004 6.8502426 7
24.710785 1.7247381 6.8509321 11
24.846714 1.7514927 6.9369431 14
-2.3312778 1.8874619 6.8840256 15
4.2413707 1.924305 6.8994946 15
10.313101 1.8378775 6.8200445 11
21.755487 1.9023352 6.8866577 9.5
23.342909 1.810107 6.8036995 5
23.497959 1.8415655 6.8416662 6.5
23.712151 1.820843 6.8468332 6
23.875946 1.8723791 6.8991899 5
24.042419 1.8924679 6.8046732 15
13.149038 2.1250911 6.9615703 15
13.263996 2.0846827 6.900506 13.5
13.562887 2.0805492 6.8212323 11
21.723194 2.0679865 6.8930721 14
13.147058 2.3060482 6.9889884 15
16.337204 2.2525463 6.8963704 13
13.095654 2.4904783 6.9121919 13
15.10817 2.518311 6.8957925 15
16.384941 2.5130756 6.8164043 13
-3.2947981 -1.0794051 7.1586275 5
-3.1016009 -1.1108866 7.0723858 4
-2.8746161 -1.0906525 7.1232634 4
-2.2820241 -1.0820117 7.0639238 0
-1.7502764 -1.0897031 7.0420623 6
-1.4621627 -1.0660987 7.1034603 4
-0.56219774 -1.0748316 7.1390996 6
-0.34463975 -1.0674199 7.1054258 6
-0.12841938 -1.0593752 7.0610266 6
0.25129253 -1.0596224 7.0567884 6
0.5860799 -1.0276361 7.1233845 4
0.60763264 -1.0598476 7.033587 6
2.4576492 -1.0236669 7.1882725 0
4.2743702 -1.0075012 7.0516844 6
-3.2902546 -0.92322195 7.1281271 6.5
3.3005648 -0.99299586 7.1406717 6
3.617892 -0.99806237 7.057404 6
4.5421419 -0.99562192 7.1293774 6
4.6670256 -0.97016251 7.0576134 6
4.9211507 -0.99156731 7.0982018 6
5.470459 -0.98567444 7.1050138 0
5.7004199 -0.9718436 7.1204386 2.5
6.0757079 -0.94597918 7.1069894 5.6666665
6.5094337 -0.97651482 7.1172605 6
6.9605384 -0.96568251 7.0718765 4
7.299315 -0.97058511 7.1718016 5
7.4855018 -0.96442837 7.0357914 6
7.6940432 -0.97586167 7.1677942 5
7.8557825 -0.97715771 7.0892582 3.75
8.0524235 -0.96867931 7.0906262 3
8.3560095 -0.9296667 7.0728769 0
8.4666595 -0.95560241 7.0673447 6
8.7018576 -0.9660871 7.0751367 8
