# .PCD v0.7 - Point Cloud Data file format
VERSION 0.7
FIELDS x y z intensity
SIZE 4 4 4 4
TYPE F F F F
COUNT 1 1 1 1
WIDTH 1225
HEIGHT 1
VIEWPOINT 0 0 0 1 0 0 0
POINTS 1225
DATA ascii
23.307125 2.5807853 -2.7060866 11.912159
23.767258 2.558006 -2.691247 8.6125221
24.241947 2.5721874 -2.6337943 10.031576
24.483635 2.4417672 -2.5104804 3.4877925
7.0797529 2.8358455 -2.7614427 13
7.5373363 2.8386905 -2.4612765 13
7.8651161 2.8314867 -2.5354714 13
8.0401974 2.8511586 -2.7752137 13
8.7835102 2.8142185 -2.584461 15
9.9426794 2.8187313 -2.4226992 13
10.204461 2.8399806 -2.527513 14.665762
10.546336 2.8528011 -2.6086121 14.314429
10.97456 2.8532295 -2.5418577 12.23234
11.234661 2.8305221 -2.6546831 12.292969
11.857121 2.8322082 -2.5398307 13.835938
12.354805 2.8553457 -2.5859561 14.197917
12.572857 2.8571334 -2.7189388 15
14.279071 2.8321197 -2.5174937 13
14.662342 2.8737915 -2.5922666 13.510416
15.121614 2.8992412 -2.5602045 14.909721
16.090958 2.8973463 -2.4292607 15
16.64447 2.8719428 -2.5419114 12.1875
17.081924 2.9180799 -2.5106616 14.427469
17.332817 2.9297917 -2.492063 12.8125
17.914818 2.8260818 -2.6999362 7.0014839
18.128529 2.9020875 -2.5539293 9.354167
18.503925 2.8512261 -2.5230365 13.682043
19.017082 3.0056324 -2.7003734 14.221354
19.289309 3.0267117 -2.6054244 13
19.617149 3.000627 -2.6241443 15
21.153454 3.0315804 -2.6846101 15
21.525164 2.8938417 -2.4897506 11.368403
21.643637 2.9602118 -2.6226957 14.057981
22.141142 3.0252664 -2.7140503 14.805556
23.946161 2.8673522 -2.5424824 4
24.057249 2.8721268 -2.6192644 4
-10.886749 -1.6120501 -2.2602901 11
-9.6958942 -1.3559568 -2.1460335 11
-9.2580175 -1.4018377 -2.1609361 9
-8.4138565 -1.2289352 -2.2968636 12
-8.3218126 -1.2153431 -2.1645977 9.8340406
-7.7068758 -1.2647984 -2.1931252 8
-7.5031533 -1.2408394 -2.1816707 8
-7.0123405 -1.2431774 -2.2119713 8.2821178
-6.4399576 -1.2217424 -2.0499625 8.5
-6.1971273 -1.224287 -2.280972 9
-5.821125 -1.2237951 -2.2027683 7
-5.3866997 -1.2134093 -2.0847173 8
-4.9479856 -1.2093321 -2.1101649 9
24.638924 -1.325801 -2.2936504 6
-9.2599535 -0.86073893 -2.1402199 11
-8.4139309 -0.89430404 -2.1481214 12
-8.3635492 -0.8459686 -2.1346669 11.999993
-7.3422899 -1.1670743 -2.2961268 8.9444447
-6.980052 -1.0219592 -2.3064685 8.0463543
-6.710124 -1.103807 -2.0410197 9
-6.172575 -1.1869084 -2.289773 9
-5.817728 -1.1616601 -2.1919124 7.9375
-5.428864 -1.1551797 -2.1632102 7.828125
-5.1181378 -1.142138 -2.230155 7.0030384
-4.6857615 -1.1032338 -2.2480302 7.0157881
-4.1241655 -1.0991323 -2.2793391 5.7500019
-3.9134092 -1.0734451 -2.285109 5.500308
-3.440949 -1.0851377 -2.1928153 5.107069
-3.0489721 -1.0459362 -2.2578666 4.0277777
-2.5351911 -1.0430595 -2.1639357 2.7708349
-2.1630733 -1.0010027 -2.0736575 9.9817429
-1.7242756 -0.98703676 -2.1712852 7.5781498
-1.5139866 -0.97484547 -2.2029967 9.3874264
-0.94186127 -0.97857577 -2.2612138 5.3486633
-0.60387564 -0.96665633 -2.2916355 5.6443872
-0.31128371 -0.95661324 -2.2175856 6.5668864
0.20772545 -0.94246382 -2.1499505 5.6755896
0.55868477 -0.91546154 -2.2802033 6.1568642
0.91376019 -0.90676051 -2.2973032 5.909441
1.362155 -0.91610843 -2.1917529 1.6500058
1.8170555 -0.88904595 -2.1161761 5.7857108
2.1834855 -0.89686424 -2.1309228 2.0760105
2.5479207 -0.86994219 -2.1825669 5.7429399
3.0343366 -0.86254954 -2.1553669 5.5096807
3.4545593 -0.8596859 -2.221025 1.005128
3.8186238 -0.84746224 -2.2926145 8.0001612
4.0548944 -0.83423054 -2.2740505 7.5463152
4.6477489 -0.81431174 -2.1716845 0.30404562
4.9109683 -0.84256023 -2.0799289 5.9930887
5.4829092 -0.82124662 -2.1370378 4.5557709
5.8298903 -0.811602 -2.1969495 6.9609585
6.2112679 -0.83892065 -2.1618483 6.040051
6.6037159 -0.80679059 -2.1292515 6.453125
7.3530846 -0.90903634 -2.1845398 7.25
7.8895464 -0.81159401 -2.110045 1.5208334
8.1127186 -0.80064148 -2.2283258 2
8.6425915 -0.88922155 -2.1629114 0
23.08909 -0.97878802 -2.1819391 8
24.588097 -0.87546235 -2.357759 7.9882812
-8.4160881 -0.74758101 -2.0773141 12.000004
-8.3863764 -0.74299443 -2.0495689 12
-2.4101224 -0.6982668 -2.1076684 13
-2.3560004 -0.76747346 -2.1932325 13
2.9919014 -0.79341561 -2.3419487 8
3.8017774 -0.7813226 -2.0922914 8
4.2232575 -0.76099956 -2.2785099 8
4.6912594 -0.77291065 -2.207454 6.6342587
5.017725 -0.74914229 -2.225749 8.063736
5.3830833 -0.78040934 -2.2545643 6.9861112
5.8375812 -0.77891111 -2.2136698 7.3637152
6.3036733 -0.77390569 -2.2373581 6.1391602
6.5094857 -0.78637958 -2.3315673 6.0020685
6.9511204 -0.74091136 -2.2898684 6.1846542
7.3020515 -0.72983044 -2.2636201 6.5031939
7.8288918 -0.71818721 -2.3044991 6.5925832
8.1843071 -0.73105657 -2.3469687 4.0010362
8.5337353 -0.68880671 -2.3360529 4.2519231
8.9880791 -0.68698609 -2.2242348 5.3215156
9.2259722 -0.70306325 -2.3674824 2.0002565
9.6987228 -0.64049375 -2.3309522 2.8727093
10.086463 -0.66123033 -2.3844118 0.34940946
10.571244 -0.61985159 -2.3441749 0.91227418
10.966204 -0.61362213 -2.3019924 1.3402025
11.406139 -0.59552264 -2.3045406 0.86450654
11.93207 -0.59629714 -2.2280812 1.743047
12.310482 -0.60428786 -2.1906295 2.891232
12.610529 -0.61700916 -2.1659055 2.2494645
13.009871 -0.616997 -2.1489146 1.7869296
13.475959 -0.61473083 -2.1562991 1.6874065
13.889033 -0.59873253 -2.2169626 3.3022702
14.198889 -0.59341347 -2.1391659 2.9130361
14.637546 -0.58525109 -2.2106841 1.0181807
14.915239 -0.58880037 -2.2687459 2.277514
15.292036 -0.58230382 -2.2471483 1.5722232
15.743279 -0.57603538 -2.256515 1.1279343
16.244787 -0.56272316 -2.2081108 1.7033045
16.680845 -0.54888117 -2.1667647 2.058938
16.999775 -0.54066205 -2.1887102 1.1821051
17.424685 -0.5224638 -2.2318382 2.8894405
17.758234 -0.52265716 -2.2264078 0.73081845
18.13179 -0.50553435 -2.1676438 1.9698076
18.639326 -0.48480225 -2.2611887 2.2007778
19.011553 -0.47553146 -2.1989353 1.8472178
19.439362 -0.46023786 -2.2760935 1.5332705
19.897278 -0.46494639 -2.1243031 1.8274908
20.164284 -0.46128112 -2.2649851 1.8788489
20.637169 -0.44242787 -2.1645889 1.4275621
20.963272 -0.43534437 -2.2882814 1.7022078
21.362909 -0.42202863 -2.2015049 1.3797874
21.905432 -0.41447279 -2.1448512 2.1475484
22.153921 -0.41491508 -2.1918437 1.8533179
22.649204 -0.40832061 -2.1222944 0.70963424
23.013361 -0.40380123 -2.1954772 2.0928819
23.505543 -0.43248743 -2.2777028 9
23.608767 -0.4585056 -2.2119627 10.5
24.573055 -0.70714706 -2.3675327 8.0947266
24.936218 -0.46677247 -2.1964531 12
-10.93047 -0.31322652 -2.2199292 13
-9.7218704 -0.045789659 -2.0575442 13
-9.2876472 -0.32294601 -2.1931922 13
-8.4049196 -0.01372364 -2.0315428 13.87085
-8.3867111 -0.065378353 -2.1044188 13.591959
0.91565871 -0.1975037 -2.2145133 0
1.8350379 -0.037488911 -2.1944554 5.6666665
5.1415229 -0.056326412 -2.0214496 0
5.77987 -0.043442823 -2.137989 0
19.522556 -0.39557856 -2.2830691 8
21.117786 -0.38930082 -2.1505089 9.5
21.633541 -0.3841241 -2.3019516 10
22.254032 -0.39234203 -2.3554003 5.375
22.5924 -0.38203424 -2.1646595 3.7673218
22.892677 -0.38507485 -2.2467475 1.5412776
23.351198 -0.37960392 -2.2120204 0.89858633
23.81897 -0.36508957 -2.2754078 0.55629545
24.24202 -0.35521674 -2.1821733 1.6602867
24.558479 -0.34424418 -2.224617 1.6736006
24.839363 -0.33933771 -2.0593419 2.8330226
-9.3209324 0.21673638 -2.2005255 0
-8.412632 0.021574799 -2.0304856 14
-8.3741226 0.057547815 -2.3380423 13.956787
1.5666699 0.026433291 -2.2679205 6.5
5.4047089 0.063380316 -2.1362822 12
6.1870232 0.11247823 -2.1240835 8.8000002
6.6501503 0.15408507 -2.0169458 6.1999998
7.0272417 0.1431724 -2.0314593 6.1999998
7.4065666 0.1600865 -2.0454574 7
7.9728899 0.23551276 -2.1734211 5.6666665
8.289176 0.19449066 -2.1364436 6
8.6138592 0.21102779 -2.0681753 6
9.0287457 0.10862063 -2.1987548 10
9.8126488 0.13592695 -2.1322501 10
10.174478 0.12300066 -2.1070111 7
10.569944 0.1772871 -2.0984707 12
10.914482 0.10735159 -2.0336719 2
22.412544 0.083444893 -2.3226895 12
23.054871 0.15892509 -2.336982 12
23.306549 0.12585762 -2.3469102 12
24.573254 0.23653531 -2.3384833 12
24.888594 0.2817741 -2.3862822 12
-9.3419952 0.75190866 -2.0730743 2
-8.8222723 0.484097 -2.0003479 0
-8.4173222 0.7257632 -2.0317783 1.1015296
-8.3815842 0.79250944 -2.3531663 1.0190835
-2.3044443 0.67982244 -2.0847864 0
4.385716 0.78484219 -2.013428 0
23.222849 0.53612989 -2.3580191 14
24.387083 0.68363941 -2.0447168 14
24.637367 0.71061313 -2.3492064 14
24.872471 0.62968898 -2.3824241 14
-10.960632 0.99167836 -2.3261824 0
-8.4228535 0.87865579 -2.0795879 1.1015625
-8.3815727 0.88826782 -2.3683014 2.9726551
-2.4807403 1.0049244 -2.1020281 0
4.307292 0.84992194 -2.0651741 0
4.5030274 0.80155349 -2.0225122 0
18.655479 1.1366866 -2.02703 0
18.8694 1.0128554 -2.1926994 0
24.727283 0.99314427 -2.3793039 1
24.887455 1.0061672 -2.3905878 2.0078125
-9.7162971 1.2954998 -2.3771069 0
-9.3890381 1.2839949 -2.0149057 4
-8.4247837 1.484874 -2.0500069 2.7500362
-8.3867197 1.5701013 -2.3771324 3.0009694
-7.6334023 1.5363293 -2.0798843 11
-7.4513068 1.5658078 -2.0424604 6.928546
-3.7966006 1.5978234 -2.3839271 15
-3.4686172 1.5839866 -2.3740613 14.833333
-3.1223965 1.5827543 -2.3917632 13
-2.6345856 1.4950665 -2.2993755 9.125
-2.2696071 1.5389913 -2.3078489 5
-1.2202284 1.5052099 -2.1602354 3.3728914
-1.1908278 1.4955428 -2.0983877 3.2919199
-0.64918315 1.5573747 -2.1005597 5
0.010782328 1.5935593 -2.0120792 5
3.6422629 1.5513711 -2.1191063 7.0016346
6.244235 1.473098 -2.0452664 8.9995298
22.397585 1.2852532 -2.1005206 3
22.418802 1.3103856 -2.0856767 3
24.396729 1.289269 -2.0727549 1
24.73057 1.3242133 -2.3887162 3.7709029
24.919504 1.4480219 -2.3748558 2.5755448
-8.4301195 1.6397343 -2.1284494 3.25
-8.385437 1.6745635 -2.3198035 10.125
-7.7587042 1.9151298 -2.147819 5
-7.3815455 1.6547096 -2.1496921 2.8497672
-7.1389966 1.8057905 -2.2789354 2.4375
-5.3091393 1.9142637 -2.1888783 14.999992
-4.9955826 1.9909141 -2.251693 5.6222949
-3.7747903 1.6280366 -2.3477435 15
-3.3546329 1.7772433 -2.3836455 12.75
-2.9674988 1.7147498 -2.3811936 13.888067
-2.7122946 1.6498703 -2.3502641 13.26351
-2.1952114 1.730381 -2.2356653 14.14534
-1.7482105 1.6997161 -2.252347 9.0567636
-1.4967504 1.8722249 -2.1430302 4.602057
-0.94517958 1.6253754 -2.0557327 4.99998
-0.55701762 1.7010031 -2.1143801 5.0119228
-0.17293504 1.8051908 -2.0212357 5.1678219
0.068306558 1.7287885 -2.0201979 9.2531738
0.67654204 1.7026415 -2.003644 5
1.5352917 1.8382336 -2.3678863 7.0119019
3.7758479 1.6166756 -2.1821942 8.2770262
4.6510201 1.9660516 -2.1009779 13.250257
5.1194468 1.984647 -2.2984662 10.336199
6.2550673 1.7338572 -2.03825 10.999457
15.714327 1.9092727 -2.3806386 9
16.191978 1.9432352 -2.3530045 9.5
16.647907 1.9591222 -2.3715034 12.985649
17.036785 1.9554342 -2.3763561 9.7116413
17.483799 1.9606829 -2.3493409 13.576595
17.846542 1.9673975 -2.3012714 10.750414
18.159073 1.9427457 -2.3057661 13.861146
18.600224 1.9506621 -2.2625661 13.152278
18.959221 1.9368391 -2.2523856 14.165081
19.364685 1.9433587 -2.2212152 12.797111
19.812138 1.9706073 -2.1292269 14.076172
20.226034 1.9713125 -2.1105754 11.471646
20.534765 1.9573579 -2.0387144 7.5563555
20.958662 1.9278138 -2.0310068 7.1060381
21.39913 1.9782425 -2.0443592 6.4904823
21.737423 1.9889774 -2.0181618 10
24.371235 1.8948512 -2.0910797 3
24.772888 1.7644856 -2.3773146 7.3919277
24.847824 1.8178892 -2.3485138 6.2712364
-8.4386406 2.1148844 -2.2290831 5.9166346
-8.3837595 2.196732 -2.3002548 14.958328
-7.8910866 2.2973428 -2.1452253 14.5
-7.4176383 2.1127045 -2.0914652 14.832176
-7.0827909 2.2211084 -2.1371546 14.399134
-5.3123021 2.0374167 -2.1536286 15
-4.9953403 2.0187593 -2.3047822 5.0186563
-4.7091675 2.1140285 -2.122447 9
-3.4103718 2.0636356 -2.3958025 13
-3.0711186 2.0806355 -2.3670917 12.15625
-1.6124423 2.1897013 -2.0819354 3.4375
-1.5235476 2.2240386 -2.2635715 6.9907169
-1.144616 2.1719882 -2.1482944 11.666342
-0.53685355 2.0782578 -2.1060359 6.7649994
-0.13334039 2.0395937 -2.015914 6.3392115
0.27372676 2.2743902 -2.3720675 14.40109
0.63911164 2.2976372 -2.3357968 14.492525
1.0340223 2.2017424 -2.3243139 14.414309
1.4434975 2.1619411 -2.290664 14.109709
1.8598286 2.2231083 -2.204016 14.369701
2.2180614 2.2288005 -2.1533844 14.43483
2.5962772 2.2332249 -2.2586293 14.493155
2.9777441 2.2289684 -2.1728883 14.66256
3.3848059 2.1996279 -2.1633203 14.179795
3.8885643 2.2063608 -2.218154 13.584635
4.1784968 2.2064841 -2.1245627 12.648438
4.4703703 2.220439 -2.2916844 11.515611
5.1582317 2.128087 -2.2965539 11.999979
5.3674831 2.2004426 -2.1395977 11.37594
5.8872461 2.2739577 -2.0114274 14.050779
6.0304508 2.2445788 -2.0102253 7
7.9497709 2.3245144 -2.1294193 12.622513
8.2567158 2.3303733 -2.1387553 13.176977
11.158442 2.1270859 -2.3121424 12.843696
11.539761 2.1179187 -2.2484078 12.925962
11.816885 2.2325416 -2.2245269 14.386221
14.242186 2.3705955 -2.2189341 10.690063
14.536331 2.3624334 -2.3343527 12.083333
15.611162 2.0262899 -2.3740499 11
16.163708 2.0550733 -2.3579299 12.022461
16.639303 2.1275098 -2.3081396 13.785592
16.996178 2.2520692 -2.3003509 14.09848
17.281282 2.0822778 -2.2941661 11.110327
17.795761 2.0896015 -2.2398262 11.560684
18.185215 2.1415157 -2.2424343 13.63981
18.5079 2.197437 -2.2235498 14.228019
19.002199 2.0665979 -2.1893303 12.297829
19.363655 2.0531995 -2.0789843 10.173047
19.827351 2.0266926 -2.2825031 13.11069
20.138971 2.0247998 -2.3186302 10.000722
20.672897 2.0294869 -2.1990905 12.514544
21.084755 2.0459626 -2.202343 10.675415
21.373209 2.0606086 -2.1345468 12.968755
21.879429 2.0723977 -2.1413443 12.717897
22.114939 2.0745935 -2.1005096 9.8768959
22.605822 2.0852981 -2.0447564 10.690771
23.00423 2.0936708 -2.0261297 4.0021224
23.343679 2.0845718 -2.0079095 5.0058603
23.649818 2.2596688 -2.2924116 4
24.362869 2.3597856 -2.1996446 7
24.556635 2.3652976 -2.3138435 13.866443
24.898823 2.1936612 -2.277576 14.26264
-7.2108493 2.4716215 -2.2493699 13
-7.1901841 2.4816141 -2.1828907 13
-1.6235018 2.4151571 -2.1701605 7
-1.4380212 2.4614525 -2.2444084 13.521595
-1.097247 2.4469142 -2.1415915 10.770834
-0.50751752 2.5327544 -2.3496051 13.608459
-0.095242813 2.4902353 -2.2451622 14.079224
0.30595416 2.5298169 -2.3341317 14.255643
0.71993482 2.5186608 -2.3054943 14.440592
1.0498104 2.522459 -2.2573106 14.463682
1.2648617 2.5611868 -2.1501799 14.75
1.9695535 2.4646695 -2.1655908 13.684317
2.1678021 2.5522695 -2.1028383 14.606599
2.6272109 2.494488 -2.0763512 14.605553
3.0065377 2.4654875 -2.0404553 13.825794
3.3195128 2.5633039 -2.1594214 13.624133
3.7176552 2.5467615 -2.2719121 14.551939
4.2678809 2.4648058 -2.19696 14.901545
4.4883814 2.4911423 -2.3223934 13.768799
5.1455202 2.5947568 -2.2501087 14.999234
5.3383722 2.62641 -2.198729 13.725855
5.8032365 2.691874 -2.1423521 13.633653
6.0704751 2.713872 -2.1765537 13.444446
6.915885 2.7659395 -2.3257618 11
7.3685088 2.7633965 -2.0983369 11
7.9760246 2.4649208 -2.1906404 14.228951
8.326786 2.526154 -2.205478 14.63764
8.7061901 2.7758293 -2.2937489 15
10.364785 2.7707558 -2.160594 15
10.583966 2.7565863 -2.1534107 15
11.176751 2.6702147 -2.1102138 12.579948
11.233192 2.6879711 -2.2502785 12.944446
11.796321 2.5458515 -2.1472807 14.770589
12.05065 2.7773798 -2.0305474 14
12.484623 2.7878931 -2.006891 15
14.328026 2.4184465 -2.0751534 11.99454
14.546856 2.4841752 -2.3367205 14.429022
14.836946 2.4204578 -2.1140792 12
16.251904 2.5378265 -2.3674693 14.25
16.699989 2.6734419 -2.3895609 6.9420881
17.086573 2.7043357 -2.3122768 6.8276262
17.867344 2.6509945 -2.324132 6.0170007
18.393051 2.7123864 -2.1788282 9.4785175
18.452303 2.5570633 -2.1866767 14.076207
19.940346 2.665673 -2.1322279 10.396149
20.033186 2.5788479 -2.125381 12.375
21.148176 2.5548763 -2.1205103 9.895834
21.51218 2.6318908 -2.1261644 14.323525
21.627808 2.560725 -2.1475279 14.222222
22.901741 2.7371511 -2.2029378 7
23.312105 2.7914956 -2.0529912 7
23.684719 2.4441061 -2.3106256 4
24.299648 2.5162046 -2.1310401 5.5
24.452873 2.411118 -2.1314683 3.5932388
7.3745422 2.830359 -2.3956466 13
7.6474113 2.8101912 -2.3323517 13
10.308634 2.8397284 -2.1449273 14.733941
10.551843 2.8577347 -2.2425067 14.330119
11.008621 2.8408213 -2.2743092 12.259548
11.821998 2.8133626 -2.1604548 11.375
12.242239 2.8378932 -2.1969728 14.291666
12.626619 2.8523502 -2.3651111 15
14.212299 2.8403409 -2.2277141 14.5
14.57386 2.8554354 -2.2176027 13.897425
14.980305 2.8825107 -2.1893187 14.421875
16.10244 2.8887625 -2.2100782 15
16.664082 2.8214471 -2.3480291 8.8515625
17.054934 2.8226585 -2.3325195 7.1526594
17.467903 2.9632139 -2.286859 7.421875
17.858311 2.8312726 -2.2843766 7.0031648
18.380968 2.8726716 -2.1296682 8.4450827
18.461819 2.959672 -2.2652895 13.63957
18.944187 2.9921391 -2.2287841 14.195312
19.479927 2.9718547 -2.2308784 15
19.640181 2.9896717 -2.1090848 15
21.193604 3.0139692 -2.1105611 15
21.529999 2.9281585 -2.192477 12.817274
21.65609 2.978343 -2.2950931 14.930555
23.159458 3.0641074 -2.2632294 15
23.512711 3.0334828 -2.2305107 13.375
23.941666 3.0410554 -2.2496018 12.932292
24.298042 3.0477321 -2.1503408 13.940682
24.441364 2.9504745 -2.1180978 14.30904
24.988401 2.9935589 -2.0598645 5.75
4.2590528 -2.0015368 -1.6041741 11
-10.947347 -1.6267557 -1.7121463 11
-9.7443619 -1.3926622 -1.6784537 11
-9.282795 -1.4324487 -1.6539701 9
-8.4429436 -1.2264707 -1.753252 10.78125
-8.3124228 -1.249999 -1.7755048 9.0117569
-7.7408037 -1.2727535 -1.8654721 8
-7.4931812 -1.2493578 -1.847369 8
-6.9681649 -1.2116406 -1.7191317 11.265625
-6.6777353 -1.2049868 -1.8210831 8.1878262
-6.1573663 -1.2497094 -1.655197 6
-5.8544397 -1.2153736 -1.9046153 6.9375
-5.3376865 -1.2040782 -1.7526187 6.0026045
-5.0790148 -1.2077484 -1.6654376 6.5
-4.6921148 -1.2219572 -1.641935 10
-4.115593 -1.2036057 -1.8982435 10
-9.2983551 -0.88820565 -1.6957494 11
-8.4215164 -0.82258272 -1.6979545 12
-8.3761654 -0.88970685 -1.8509238 11.708062
-7.2603946 -1.1859338 -1.8288968 8
-6.8895745 -1.0318036 -1.7501904 11.981481
-6.7946906 -1.1522405 -1.8505648 8.0000038
-5.8183017 -1.1492357 -1.8067005 7.6828699
-5.442667 -1.1575557 -1.8716561 7.6921296
-5.1114492 -1.1840668 -1.6763099 6
-4.7532978 -1.1332682 -1.8495814 6.0002999
-4.1979823 -1.1090658 -1.90106 5.9586544
-3.9004326 -1.0753212 -1.8035197 5.3888893
-3.4434159 -1.0887052 -1.7924706 5.4394913
-3.0892885 -1.0648353 -1.8670124 4.0555563
-2.5614803 -1.035778 -1.7643411 3.1100266
-2.1300998 -1.0085902 -1.8898726 9.7435703
-1.7799942 -1.0087134 -1.8259165 5.0871439
-1.4629905 -0.98327738 -1.7931461 9.6036873
-1.0777247 -0.9988904 -1.8242389 6.9724712
-0.57905245 -0.98206234 -1.8029947 7.8577085
-0.17281204 -0.96745211 -1.8200274 8.8493557
0.25861013 -0.95376456 -1.7523952 5.5486784
0.68494415 -0.9297663 -1.7382897 5.5297084
1.0040896 -0.93798947 -1.7951646 1.1903263
1.3794184 -0.92781007 -1.7841642 1.5381989
1.8835241 -0.89800328 -1.7335888 7.1778207
2.1228185 -0.91280663 -1.7681291 1.5293849
2.575659 -0.87847394 -1.8264022 5.9684477
3.0038273 -0.85644394 -1.7677094 7.2103181
3.41872 -0.87866873 -1.8491386 1.0041075
3.8237731 -0.86269373 -1.9113464 7.9944701
4.0686669 -0.8479405 -1.8993478 7.5651045
4.6222324 -0.83333701 -1.7583122 0.30981749
5.0798006 -0.81173909 -1.8678938 7.3603516
5.424396 -0.83968067 -1.7157354 6.9341993
5.7654877 -0.8089273 -1.7933822 4.4092989
6.0955849 -0.83413804 -1.7768114 6.9588733
6.6018105 -0.80385268 -1.7839229 8.020155
7.0461025 -0.82686329 -1.6914085 4.8003473
7.4473457 -0.82073146 -1.7432481 1.4166666
7.7446017 -0.80659145 -1.7459188 2.1100261
8.1472893 -0.81090987 -1.7518646 4
8.5525541 -0.84340644 -1.8565311 2.25
8.9123173 -0.86319649 -1.7703142 0.375
22.88096 -1.0215616 -1.9913093 8
24.392923 -1.1240143 -1.7729611 8
24.471745 -1.1125546 -1.8482599 8
-8.4342289 -0.76482666 -1.6759062 12
-8.2720184 -0.64348191 -1.7997471 12
-2.4715753 -0.73003542 -1.7755194 13
-2.377655 -0.78277034 -1.8703014 13
3.4458811 -0.79071975 -1.8839275 8
4.2831359 -0.64428258 -1.8665733 10.447917
4.9950008 -0.76261681 -1.9118208 8.0079422
5.4033194 -0.7968567 -1.9320049 7.25
5.837503 -0.78824103 -1.8252029 7
6.0823221 -0.78995478 -1.7862053 6.3385415
6.6035461 -0.78880715 -1.80594 6.0000663
6.9285583 -0.75737298 -1.9195253 6.2030711
7.4042339 -0.75427371 -1.8336049 7.0207486
7.8089466 -0.73525465 -1.9099163 6.4696059
8.156354 -0.74191082 -1.9700922 4.0016365
8.5945673 -0.6906743 -1.9067845 4.4496055
9.1536627 -0.71686149 -1.984509 2.0295043
9.4368582 -0.66379184 -1.9491429 3.3987803
9.8493261 -0.70251065 -1.8565232 9.2125643e-05
10.166837 -0.65323853 -1.9766057 0.44717222
10.602066 -0.63722843 -1.9476351 1.4154723
10.993417 -0.63005102 -1.9343824 0.77316689
11.430261 -0.6194244 -1.8590354 1.9037148
11.832191 -0.61843014 -1.8305835 1.5329211
12.222453 -0.62571502 -1.792393 1.8011336
12.663163 -0.63355392 -1.7382473 1.7713697
13.03982 -0.61811566 -1.8490894 4.4054761
13.408084 -0.6350252 -1.7289099 1.2619545
13.865253 -0.62462151 -1.700052 1.968748
14.293933 -0.61084658 -1.8585546 4.4921355
14.577011 -0.61155951 -1.7539535 1.6053791
15.079587 -0.59728795 -1.9428872 1.1773921
15.443019 -0.60444796 -1.8063024 1.0541273
15.837637 -0.58308262 -1.882112 1.9214478
16.110075 -0.58209026 -1.8510106 1.7371676
16.56315 -0.57144088 -1.7536108 1.6199222
16.936531 -0.5521071 -1.7701603 2.9819486
17.354309 -0.54764903 -1.7212925 1.6565008
17.959526 -0.53166461 -1.7460234 2.1584299
18.056793 -0.51284796 -1.7255812 8.5800838
18.612595 -0.49782819 -1.9136963 1.577662
19.07444 -0.49488086 -1.7810209 3.1072998
19.344582 -0.47517282 -1.8336906 2.6736112
19.784321 -0.48398715 -1.7862071 1.4392099
20.193491 -0.47360256 -1.7431036 2.5780747
20.51803 -0.46329537 -1.7836676 1.4936694
21.04664 -0.44839916 -1.7852459 1.0563519
21.369801 -0.44586635 -1.8635573 4.4434485
21.753611 -0.44068226 -1.7745043 0.86335039
22.235785 -0.41813576 -1.7256712 3.331228
22.514242 -0.41728497 -1.79254 2.2993364
22.909828 -0.41004962 -1.7046002 0.8135426
23.299622 -0.41194415 -1.7954111 1.1817492
23.791321 -0.40422714 -1.781747 5.0625
24.219297 -0.51988637 -1.7864118 10.25
24.42717 -0.40616176 -1.7049353 0
-10.978295 -0.3213926 -1.8878597 13
-9.7647581 -0.075997233 -1.6669397 13
-9.2946577 -0.34006467 -1.7676415 13
-8.4590111 -0.0035816671 -1.637499 13.999908
-8.3169613 -0.1727318 -1.8516458 4.8333192
1.515353 -0.0071498528 -1.8837131 6.5
2.2189326 -0.031702083 -1.8366179 5.5625
2.5374749 -0.024330057 -1.6172495 6.1999998
4.1500964 -0.0090441182 -1.8165474 10
4.4955053 -0.078839347 -1.8440244 0
4.8076735 -0.055568457 -1.9434021 1
8.1598835 -0.084726751 -1.6490865 0
18.974186 -0.034392536 -1.6828535 13
21.324707 -0.39030254 -1.8290741 10
21.716667 -0.39598024 -1.8651745 10
22.318308 -0.39123046 -1.9308646 7
22.597454 -0.39010561 -1.9098351 8
23.081207 -0.38877821 -1.8273563 3.7706704
23.353897 -0.38859162 -1.8886447 1.1689224
23.81801 -0.38535607 -1.7417932 1.3736347
24.166744 -0.36999315 -1.8713312 1.5872232
24.527216 -0.37097928 -1.7509708 1.8088793
24.927364 -0.35958776 -1.7457776 0.93399954
-9.3396044 0.2019608 -1.8166021 0
-8.451519 0.029782679 -1.6916554 14
-8.3682585 0.16923897 -1.8906711 2.7889338
1.5108225 0.015744891 -1.8798794 6.5
4.1519165 0.050761435 -1.7972778 10
4.5612411 0.1159618 -1.6957779 7.046875
5.0326948 0.12426896 -1.7953689 6.1999998
5.2863922 0.15109757 -1.8656265 6.8125
5.7841339 0.14403844 -1.9403212 6.3874998
8.9500465 0.21801856 -1.9841294 5.6666665
9.2765427 0.20331146 -1.9640156 6.1999998
9.7664719 0.12160101 -1.8473151 2.75
10.132233 0.23516962 -1.8945982 6.3999996
10.598242 0.25111195 -1.8512106 6.5999999
10.991951 0.25966904 -1.8140085 6.3499999
11.461605 0.30027157 -1.815896 6.8125
11.936728 0.30689844 -1.7471722 6.1999998
12.181026 0.23140502 -1.8113469 4.25
12.551722 0.31699234 -1.748103 7.458333
12.972021 0.35174456 -1.6599646 6.8125
13.449141 0.3550815 -1.6003094 5.6666665
18.656004 0.12104563 -1.6604691 13
23.123688 0.079885289 -1.8783336 12
24.322502 0.080313712 -1.7972883 12
24.429045 0.09642525 -1.9026427 12
-9.3631907 0.73296928 -1.6569763 2
-8.9237919 0.66503406 -1.8518301 1.0833334
-8.4325848 0.78353417 -1.9909706 1.0000496
-8.3744984 0.62347728 -1.9531251 5.5767212
-2.2743087 0.65006632 -1.7185395 0
4.365335 0.73271644 -1.7929925 0
4.4627433 0.71832085 -1.7481751 0
24.398909 0.68660098 -1.741271 14
24.595222 0.66468298 -1.9015644 14
24.926399 0.70729041 -1.8268876 14
-11.012104 0.98290467 -1.9771357 0
-9.0382366 0.89375079 -1.8169391 0
-8.4716263 0.91923946 -1.6922468 1.0338541
-8.3030062 0.95726359 -1.7499895 4.875
-2.4460983 0.94125175 -1.7281528 0
4.169508 0.97109783 -1.7631162 0
6.1890745 1.1816237 -1.7882602 13
18.656559 1.0938523 -1.7371426 0
18.86182 0.98252606 -1.8911805 0
24.12911 1.1224957 -1.7279046 0
-9.7698708 1.2636741 -1.9576015 0
-9.3934984 1.2857233 -1.8061383 4
-8.4333944 1.547868 -1.942802 2.9999933
-8.2969036 1.468257 -1.7099795 8
-7.6000528 1.566586 -1.7495642 3
-7.5013433 1.577301 -1.822648 5.6225324
-4.8254428 1.4739764 -1.8003063 9
-2.0498731 1.5143557 -1.7717329 9.166667
-1.8557653 1.5848393 -1.7778826 10
-1.253284 1.4766091 -1.709235 2.9301825
-1.1198109 1.5289483 -1.8711187 6.6574726
-0.51839733 1.5982804 -1.9383665 5
-0.1289134 1.5973356 -1.8898757 5
0.10513684 1.5986905 -1.8834083 5
3.5871301 1.5330293 -1.7404683 6.9951172
3.7321887 1.5649213 -1.752852 8.5290546
6.2259002 1.4641724 -1.8903747 8.9999895
24.314552 1.2801535 -1.7691839 1
24.928253 1.2947228 -1.9252093 1
-9.4194536 1.8427885 -1.9623711 6
-8.4913654 1.6789558 -1.7397485 3.7500007
-8.3228359 1.8937252 -1.7820709 10.25
-7.4122553 1.6703701 -1.7427067 2.1868045
-7.1358252 1.8075973 -1.7811985 12.12675
-5.3648586 1.8992856 -1.8046554 14.399916
-5.0329113 1.9945476 -1.9641962 5.0127864
-2.5066581 1.7463803 -1.9290223 5
-2.1498246 1.7870432 -1.7247088 13.09112
-1.7699769 1.8665091 -1.799732 4.2564211
-1.4943043 1.8456625 -1.790504 4.9240699
-0.98356867 1.6184232 -1.8613977 4.9894838
-0.61629879 1.7090957 -1.8489673 5.501955
-0.15362951 1.8857071 -1.9187038 4.2519112
0.2747311 1.6954453 -1.9611807 8.8199902
0.49941725 1.7303666 -1.9399722 8.1314793
1.0963799 1.7318007 -1.8751073 8.5253277
1.4686434 1.7766683 -1.8307059 11.533731
1.9035571 1.7456169 -1.7718251 8.4593287
2.2888527 1.7819413 -1.7074257 13.042888
2.747442 1.8480998 -1.6812924 6.7058287
3.1572952 1.9477594 -1.6051219 8.9979095
3.514411 1.6817492 -1.6802305 10.808466
3.7150726 1.6225584 -1.6850226 6.7979107
4.3292561 1.6729341 -1.6129102 1
4.6484432 1.937768 -1.678955 12.458359
4.9738436 1.9553547 -1.7429197 13.246783
6.2179642 1.814061 -1.8379854 11.666624
6.7449431 1.7709246 -1.7136898 4
11.526669 1.9781722 -1.7499005 11
11.710987 1.9942669 -1.7461362 11
16.435112 1.9895079 -1.7018191 7
17.977507 1.932116 -1.975769 7
18.701866 1.9443667 -1.8644181 4.5
19.095051 1.9135332 -1.9384154 4.8125
19.50766 1.8799915 -1.9497261 6.3275461
19.902164 1.9814639 -1.9714372 13.120695
20.234501 1.9498308 -1.9403621 12.850715
20.703783 1.9722548 -1.954048 13.232319
21.06863 1.9440191 -1.900835 13.891016
21.384085 1.9834239 -1.886282 10.6944
21.853104 1.9681509 -1.8481174 6.5798588
22.19352 1.9876122 -1.8276843 7.8144183
22.570169 1.9854698 -1.7859379 7.9627604
22.93911 1.990993 -1.7487977 7.0477448
23.349182 1.988605 -1.6680928 8.8098965
23.683067 1.9889076 -1.7052352 10
24.24556 1.9115896 -1.6992042 2.5310874
24.536114 1.8817648 -1.8061826 3
24.928944 1.8931458 -1.9105741 3
-8.4698887 2.168155 -1.8400322 4.9947915
-8.1537275 2.2853522 -1.7493287 14.153221
-7.883348 2.2420638 -1.8122733 15
-7.3704281 2.2559662 -1.7058814 14.753881
-7.0044031 2.2977128 -1.8349941 14.403589
-5.4052544 2.0582714 -1.9146819 15
-5.0388575 2.0121207 -1.9481153 6.2324324
-4.5770559 2.2919333 -1.7971061 13
-2.5271747 2.2012887 -1.8629662 13
-1.6113043 2.1899271 -1.6750172 5.6874418
-1.5805184 2.1991589 -1.7479693 6.9998689
-0.99275064 2.1112435 -1.8703408 6.3403554
-0.70489484 2.2758155 -1.8918264 7
-0.12351879 2.0311854 -1.986388 6.3035297
0.33538938 2.1169477 -1.9134847 4.75
0.5198552 2.2109704 -1.9721708 6.8125
0.90323007 2.1873448 -1.9369411 7
1.5796065 2.2721679 -1.669821 8.6450024
1.6233782 2.2735424 -1.8303534 8.2542524
2.2327297 2.1715322 -1.826532 7
2.7703834 2.0165133 -1.6799982 8.9998226
3.0389299 2.0246344 -1.623289 9.0901804
3.4493988 2.2843561 -1.9395648 13.863903
3.7365818 2.2479584 -1.9533856 14.216971
4.208447 2.2746465 -1.8470074 14.469994
4.4279385 2.2470608 -1.8262076 13.031211
5.069344 2.2458544 -1.610014 12.986205
5.4861712 2.2401996 -1.7564275 11.259387
5.7774816 2.2503376 -1.8784633 12.644249
6.2755489 2.1637316 -1.8390356 14.374891
6.5565062 2.2737486 -1.7733138 13.152146
6.9768429 2.2803376 -1.7253337 14.305065
7.3626251 2.2829053 -1.7119946 12.611921
7.7991714 2.2990761 -1.7169251 13.281075
8.1908979 2.3216143 -1.7486622 13.775721
8.6104116 2.3264191 -1.6304163 14.727102
8.9801502 2.3087692 -1.6062927 11.585815
11.136104 2.2147169 -1.7939365 8.9583693
11.450512 2.1023588 -1.8480583 12.839259
11.767081 2.2219543 -1.8179336 14.497892
14.214481 2.3955917 -1.7135435 12.047724
14.658016 2.3776922 -1.8044631 12.109375
16.379713 2.2068746 -1.7836245 10.111111
16.498659 2.1551945 -1.9038415 13.690121
17.857218 2.1916592 -1.7068254 12.824156
18.182873 2.2190695 -1.8402107 13.180392
18.426743 2.2822385 -1.8944845 12.98596
19.034435 2.0874963 -1.9618723 10.578125
19.510208 2.1016009 -1.9477127 8.3907871
19.752798 2.1710505 -1.9750204 14.409666
20.20682 2.1682515 -1.9024497 14.248934
20.589621 2.0668859 -1.9214084 13.824027
20.965006 2.0281324 -1.9499149 13.146229
21.371578 2.0910873 -1.8048811 13.362631
21.817528 2.0393608 -1.8538829 14.293406
22.317528 2.091228 -1.7041183 12.014475
22.64513 2.0439661 -1.7695121 14.0599
23.085108 2.0719361 -1.6867118 13.637653
23.326572 2.0654593 -1.8174493 12.350902
23.795538 2.0760005 -1.7799261 13.193343
24.264441 2.1737404 -1.7666515 11.851457
24.528856 2.1335485 -1.6872215 13.370012
24.926462 2.1060743 -1.7451341 9.2520714
-8.5089111 2.4113615 -1.8372407 11
-6.910697 2.4787369 -1.8194467 13
-4.5829272 2.4039822 -1.7127275 15
-1.6134908 2.4303994 -1.7153311 9.25
-1.4595441 2.4474874 -1.7091587 9.4518232
-0.96959305 2.4485941 -1.8060544 12.386068
-0.64074302 2.5604682 -1.8688141 14.138021
-0.1601554 2.5547864 -1.8116086 13.762346
0.27710795 2.5635705 -1.8101509 13.65625
0.65526938 2.5690546 -1.7273351 13.583333
1.0777709 2.5139194 -1.8818686 13
1.3455317 2.4492049 -1.8654944 13.75
1.8092656 2.5575938 -1.723693 13.375
2.2652259 2.5850067 -1.8952055 11.65625
2.6654263 2.5176539 -1.8018234 14.141863
3.1017044 2.5359066 -1.8023881 13.837384
3.4220953 2.4675133 -1.9299289 14.698816
3.843029 2.487668 -1.9060708 14.732909
4.2410374 2.545383 -1.820985 14.734983
4.4077334 2.5335207 -1.7276587 13
5.0696492 2.5590358 -1.6105227 14.996948
5.8164697 2.4506903 -1.8659468 6
6.2788486 2.5951803 -1.8756226 13.914522
6.5659757 2.4761107 -1.9036884 13.950021
7.0196838 2.6817045 -1.8542244 14.000021
7.3553066 2.5492678 -1.8099344 14.479168
7.9009113 2.6431921 -1.8056262 12.986111
8.2740841 2.5204535 -1.8316023 14.872141
8.5919905 2.6382267 -1.7491831 13.498714
8.9929123 2.4613206 -1.6212019 14.28125
9.4122896 2.5919323 -1.6787488 14.25
9.97328 2.7300782 -1.7159348 15
10.300915 2.757319 -1.8042389 15
10.646403 2.7558115 -1.7791942 15
11.127779 2.6991377 -1.7730298 12.765534
11.734582 2.6402202 -1.7433903 14.326063
12.099667 2.7912796 -1.6503904 12.40625
12.415771 2.7696114 -1.6658467 15
14.26322 2.4593809 -1.8379285 7.9288387
14.503707 2.5082316 -1.8928421 13.910858
14.864733 2.4123802 -1.7768571 12
16.538574 2.5769923 -1.8934133 11.89212
16.870167 2.5196223 -1.98579 11
17.819515 2.6965935 -1.8825287 6.5188971
18.376703 2.611078 -1.7230721 13.232926
18.407494 2.472331 -1.8709588 12.976562
19.919195 2.5205202 -1.9590557 13.895363
20.214458 2.4679899 -1.8668169 14.206356
20.428703 2.4516144 -1.7388787 10.6875
21.131681 2.5681458 -1.7666265 9.9336424
21.424335 2.6077251 -1.7398851 14.429596
21.673912 2.5067449 -1.8437068 7.9249854
23.425892 2.4436159 -1.6175319 4
23.814304 2.4343708 -1.7015401 15
24.375883 2.5614066 -1.6414684 13.478485
24.410297 2.548908 -1.7812011 14.648319
24.98278 2.4485235 -1.6124325 7
9.7281179 2.8460407 -1.9332004 14
10.207914 2.8443594 -1.8532145 13.892361
10.644476 2.8619905 -1.8272268 11
10.849901 2.8315017 -1.7129135 11
11.757051 2.8000624 -1.9774061 15
12.145255 2.8158822 -1.7492838 13.944445
12.488471 2.8226731 -1.7967114 15
14.17484 2.8259308 -1.9190063 15
14.552732 2.8360496 -1.8497019 14.28125
14.900982 2.863647 -1.8081186 14.4375
16.119995 2.8778472 -1.8568299 15
16.687546 2.8170841 -1.8453748 11.5
17.141766 2.8986869 -1.720282 14.649305
17.350103 2.9160743 -1.8612819 12.416666
17.786701 2.8218925 -1.8615358 7.0064745
18.369747 2.9153571 -1.8396724 11.413146
18.523174 2.9346249 -1.8630786 13.87746
19.011562 2.9887724 -1.8729694 12.578125
19.414562 2.9750409 -1.776019 14.944445
19.863754 2.8086603 -1.9726024 13
21.194954 2.9966986 -1.725607 15
21.514109 2.8866694 -1.8202729 14.304462
21.62886 2.9373388 -1.9371244 15
23.174299 3.0518255 -1.9796703 15
23.568935 3.0483384 -1.8433555 14.25
23.957214 3.0591488 -1.7675204 13
24.35549 2.9203486 -1.693423 13.430664
24.416349 2.8665004 -1.9043746 14.368067
24.960457 3.0573409 -1.7920949 6.1219616
4.2478352 -2.0249624 -1.5777875 11
-9.7699718 -1.4192559 -1.3347864 11
-9.3150253 -1.456395 -1.2506959 9
-8.4342833 -1.2471027 -1.355423 9.8213968
-8.3210735 -1.3044932 -1.3213766 8.041666
-7.7274694 -1.2928009 -1.327693 8.013937
-7.4376698 -1.2880906 -1.2959762 8
-7.0249925 -1.207387 -1.3260157 9.9375
-6.669888 -1.2058833 -1.5269401 8.1877174
-6.295435 -1.2402463 -1.3093376 7.6666665
-5.8891373 -1.2096825 -1.3807524 7.989583
-5.3638239 -1.2072573 -1.2765754 6
-5.1470652 -1.2073147 -1.3065569 6.041667
-4.5459108 -1.2249388 -1.3577564 10
-3.8432157 -1.2168753 -1.2091458 10
1.0753688 -1.2105716 -1.4756157 1
-9.3159351 -0.90782535 -1.3241024 11
-8.4822025 -0.80489612 -1.2647982 12
-8.2717056 -0.99344552 -1.4637804 9.9125004
-6.8521051 -1.1675223 -1.5656707 8
-6.7295709 -1.1079853 -1.4752058 8.0069447
-6.3021355 -1.1092274 -1.3128073 8
-5.6832695 -1.1797049 -1.3946644 7.921875
-5.3222589 -1.1764518 -1.3347234 6.125
-5.0678358 -1.1931853 -1.2681874 6.0104165
-4.6026063 -1.1440688 -1.4021975 6.0417752
-4.2303028 -1.1152894 -1.4363344 5.9461355
-3.8892708 -1.0815669 -1.504076 5.25
-3.366538 -1.1040423 -1.4069808 5.1302462
-3.1083765 -1.0720129 -1.4380023 3.9861128
-2.5912302 -1.0549455 -1.4580951 2.5833333
-2.3184319 -1.0424323 -1.4730079 2.0520833
-1.9319856 -1.0239084 -1.2678618 9.9231644
-1.3391907 -1.0017352 -1.2423942 8.8425207
-1.0317916 -1.0091722 -1.4363908 7.5870914
-0.58176595 -1.0000421 -1.4820828 7.8021269
-0.23620018 -0.9875198 -1.37868 8.1063652
0.16052213 -0.97706795 -1.3402618 5.5369687
0.49738169 -0.95899457 -1.4073424 5.7730999
0.93482012 -0.95473987 -1.3769269 1.5407243
1.3979616 -0.94274008 -1.3588316 1.6809757
1.8465085 -0.9241485 -1.3476615 5.4020338
2.156219 -0.92425382 -1.3231481 2.1863971
2.5643876 -0.90841633 -1.4875082 1.0047698
3.0224082 -0.90294254 -1.3567774 1.3457978
3.3651612 -0.87456638 -1.3822416 6.962976
3.900043 -0.87295377 -1.4921167 8.0038338
4.1339512 -0.86128473 -1.4264058 7.7905254
4.7364078 -0.83115137 -1.3584943 4.2743783
5.0782337 -0.81481725 -1.4828861 7.5900879
5.426446 -0.81643414 -1.4870362 7.6608601
5.8608952 -0.82608402 -1.3770603 4.1248627
6.0914364 -0.80847847 -1.4145893 6.1596932
6.5914898 -0.80520427 -1.470284 5.7845058
6.9235878 -0.8368997 -1.4112687 1.6207196
7.3056273 -0.81746238 -1.37229 0.91256636
7.7165532 -0.81540561 -1.2929616 2.3517251
8.1794643 -0.82239896 -1.4196658 5.302083
8.4810085 -0.80422735 -1.474813 5.125
8.9684334 -0.84567612 -1.4514396 1.5
9.255805 -0.85226494 -1.414539 2
9.9767962 -0.82788897 -1.3635733 9
11.005713 -0.8083111 -1.4484857 1
18.744253 -0.94133413 -1.235307 11
18.919207 -1.0693023 -1.3037701 11
-8.4904099 -0.78661644 -1.2772181 12
-8.3143215 -0.55445188 -1.4482852 12.53125
4.2239928 -0.56211734 -1.46649 13
4.9632254 -0.77299702 -1.4865913 8.25
5.332324 -0.79248881 -1.4599686 5
5.8811674 -0.78030527 -1.467056 8
6.2518082 -0.78727293 -1.4437422 7
6.6245856 -0.79524583 -1.5651413 6.0017867
6.9728317 -0.7682575 -1.5056654 6.1475153
7.3944206 -0.76956952 -1.4275398 6.6026478
7.7774181 -0.76183146 -1.422652 6.4977164
8.1658726 -0.75164735 -1.5687397 4.0018163
8.4953289 -0.7167986 -1.5383449 4.3044481
9.1341228 -0.72798586 -1.5774758 2.0095801
9.2664499 -0.70842874 -1.5775752 2.1824803
9.8108835 -0.71316153 -1.5791926 0.00092016952
10.117745 -0.66872203 -1.5587826 0.45853898
10.569131 -0.6499424 -1.5539345 1.5161693
10.94342 -0.64313865 -1.5319431 0.55883646
11.383409 -0.63796532 -1.4549086 1.8690794
11.781843 -0.63576859 -1.4581237 1.7969257
12.184193 -0.64153898 -1.4193699 1.7968477
12.597588 -0.6445846 -1.4053136 1.3618664
12.991135 -0.64740384 -1.4127996 3.7138076
13.343655 -0.64835995 -1.3019346 1.8197342
13.849795 -0.64062464 -1.3207611 1.2905868
14.308054 -0.63069201 -1.368305 2.2297947
14.535497 -0.62793279 -1.3857657 1.6860491
15.023307 -0.61847496 -1.5161508 1.2035482
15.375742 -0.620139 -1.3986012 2.2344952
15.834381 -0.6083197 -1.3785168 1.2150182
16.264042 -0.59113002 -1.4253676 1.9136472
16.596697 -0.57690793 -1.3457785 3.1472647
16.930489 -0.57193786 -1.3691117 0.98252851
17.326015 -0.56576419 -1.3193197 3.1447935
17.81686 -0.54742157 -1.3663919 1.461102
18.285765 -0.53113222 -1.3255041 2.4687166
18.510103 -0.51974821 -1.486629 2.6809468
19.013632 -0.5099892 -1.4745979 1.6868179
19.450027 -0.48113337 -1.3670371 4.352602
19.739296 -0.50708157 -1.3898476 2.6893358
20.209717 -0.49334064 -1.3593711 0.94709718
20.48723 -0.48200685 -1.4132586 4.5060077
20.867432 -0.46947411 -1.3863291 1.8030301
21.523479 -0.45820591 -1.4458309 1.615111
21.710762 -0.46552658 -1.4075562 1.2721177
22.176279 -0.43859598 -1.3913199 1.0189649
22.695887 -0.42337289 -1.3333564 1.3319293
22.981268 -0.41388828 -1.4055991 4.4502001
23.400883 -0.41733074 -1.3517183 0.95770293
23.768787 -0.40663302 -1.4523041 0.59344441
24.227585 -0.40650171 -1.3591132 0.87032062
24.598236 -0.40364647 -1.24529 2.3246527
24.899033 -0.40117514 -1.3263613 0
-11.01405 -0.33101422 -1.5317147 13
-9.8197641 -0.10614708 -1.2815082 13
-9.3512306 -0.36792618 -1.3019917 13
-8.5143766 -0.024444014 -1.2254539 13.999991
-8.2693768 -0.1451388 -1.3872555 3.5
0.91921186 -0.22576499 -1.3247786 0
1.466127 -0.012719359 -1.5037572 7
1.6546271 -0.1064309 -1.3374221 10
2.7019324 -0.019364156 -1.4717261 6.4250002
3.0044594 -0.0065313317 -1.3015815 7
7.4625568 -0.040033922 -1.5440717 0
8.1732445 -0.075330213 -1.5812275 0
11.041708 -0.37641308 -1.3703284 13
13.264313 -0.27207687 -1.3226117 13
13.797215 -0.12412595 -1.3132666 13
14.136586 -0.2979275 -1.5030022 13
15.11913 -0.2264197 -1.2813348 13
15.362859 -0.13577868 -1.2553273 13
15.85424 -0.11137331 -1.2350198 13
16.157173 -0.21590641 -1.2894979 13
16.554735 -0.15156651 -1.2477961 13
16.945736 -0.11515895 -1.2378232 13
17.44178 -0.12041616 -1.227773 13
17.756603 -0.12958254 -1.2408364 13
18.270458 -0.1042316 -1.2274203 13
18.752167 -0.004935503 -1.3975321 13
18.881035 -0.051175565 -1.4245064 13
23.16453 -0.39592367 -1.4315797 8
23.450327 -0.39192557 -1.523298 6
23.918961 -0.38823462 -1.3860767 3.6041665
24.13652 -0.37692466 -1.5265973 4.1803384
24.6418 -0.37782478 -1.3984897 1.4954848
24.932091 -0.38328618 -1.2955229 1.7590332
-9.3720741 0.17218557 -1.2596138 0
-8.5044937 0.079537146 -1.3324585 14
-8.3079853 0.27784979 -1.4056051 5.4166665
1.471079 0.0085497499 -1.4996536 7
3.0018809 0.0025980808 -1.2795013 7
3.4944875 0.033490852 -1.2538302 6
3.7977066 0.046339922 -1.3928566 6.5
4.1088705 0.10869399 -1.5459611 6.5
9.7309189 0.055240966 -1.2749643 1.75
10.125481 0.19183162 -1.2279824 6.5
10.457914 0.21460876 -1.230279 6.1999998
10.997847 0.20570564 -1.2195661 6.3499999
13.485808 0.32579789 -1.5770863 5.6666665
13.989179 0.28916344 -1.2147386 5.9005861
14.018268 0.30045986 -1.227515 5.8138671
14.513906 0.39639667 -1.4528445 6.5
18.661404 0.1054998 -1.3433764 13
22.367615 0.27359259 -1.2041141 13
22.421299 0.20663524 -1.2160572 13
23.795191 0.18155065 -1.2087625 13
24.061693 0.33857825 -1.3653458 13
24.937359 0.076315492 -1.5890253 12
-9.3503971 0.73549563 -1.2800131 1.5
-9.1284971 0.52768278 -1.4206387 0
-8.4870186 0.76098341 -1.5485554 1.0000196
-8.2975683 0.54325259 -1.3211575 4
-2.3497 0.59138805 -1.5164278 0
3.7427211 0.7295568 -1.3997674 0
4.2959051 0.72449619 -1.5152372 0
10.360531 0.76008976 -1.2686528 0
11.101843 0.7703625 -1.2866236 0
11.906938 0.78243524 -1.2605305 0
12.590837 0.79467475 -1.2583673 0
14.559485 0.42662069 -1.4293737 6.5
14.958672 0.45214 -1.4002515 6.1999998
15.342642 0.43966568 -1.354609 5.6666665
15.683645 0.44060153 -1.2949121 6.5
16.099018 0.45766741 -1.2589942 6.5
16.428822 0.4372507 -1.2227527 6.5
24.837065 0.69450879 -1.5776111 14
-11.0739 0.97159338 -1.526467 0
-9.2348728 0.88046789 -1.4942989 0
-8.5256844 0.8946445 -1.2877153 1.0169271
-8.2818336 0.90259969 -1.3328676 5.25
-5.8761082 1.1815333 -1.3067527 9
-5.4977064 1.1704124 -1.3129858 3
-4.8071938 1.1495171 -1.3055898 1
-4.7857642 1.1665806 -1.2493808 3
-2.4623075 0.95233071 -1.5228974 0
4.1323338 0.95920277 -1.4132037 0
5.7863083 1.1588976 -1.2046407 9
10.396997 0.80959469 -1.2935777 0
10.534078 0.92760086 -1.2322923 0
11.165648 0.9277972 -1.2434496 0
11.215192 0.86467922 -1.3424742 0
11.966475 0.85317874 -1.2816207 0
12.021778 0.9446702 -1.2356021 0
12.728168 0.87607718 -1.2507796 0
13.378403 0.85517919 -1.2258422 0
13.850552 0.88054597 -1.2573857 0
14.030472 0.85208291 -1.3415128 0
15.761648 0.86864948 -1.2317749 0
16.238079 0.8815341 -1.2641826 0
16.914728 0.91771317 -1.2720433 0
17.383884 0.92563003 -1.2788234 0
17.89711 0.93182933 -1.2614079 0
18.379919 0.93845373 -1.2529322 0
18.63718 1.0704279 -1.3628483 0
18.90457 0.92980212 -1.3745705 0
24.050367 1.1340833 -1.4268354 0
-9.8119831 1.2337182 -1.5631325 0
-9.4185724 1.2697736 -1.3419009 4
-8.5120134 1.5250143 -1.442459 2.9999912
-8.2912846 1.4099963 -1.3448055 7.8500004
-7.6641912 1.5495484 -1.5276 10.999991
-7.5032592 1.579041 -1.4411292 12.49593
-5.7180042 1.3046049 -1.281496 8
-5.4018145 1.3307031 -1.3024075 3.2955027
-4.9967451 1.3462607 -1.2834018 12.288926
-4.7182827 1.3128493 -1.2219794 5.1906734
-2.1298108 1.5679965 -1.2505614 9.6000004
-1.7223192 1.5955861 -1.2243333 1
-1.2714405 1.4936839 -1.514209 3.2922249
-1.130096 1.5740525 -1.4267673 4.3593559
3.547842 1.5488846 -1.4263866 6.9670868
3.6905727 1.5578183 -1.3898406 6.7576232
5.3820953 1.5887604 -1.4322664 1
5.7966852 1.4668038 -1.2942892 10.955556
6.1732073 1.4509101 -1.5855434 8.9979744
24.923481 1.3198779 -1.5458214 1
-9.4453487 1.8241146 -1.4984794 6
-8.5205927 1.6305324 -1.3978301 3.25
-7.6442695 1.9183486 -1.5297642 13.106256
-7.4527736 1.6667752 -1.3506958 2.6899581
-7.1396818 1.6852251 -1.5006489 11.947916
-5.731472 1.6946435 -1.2483052 14.6875
-5.4703226 1.7906597 -1.3654213 13.913666
-5.0861921 1.9838496 -1.5781379 5.0015783
-2.4205053 1.7307538 -1.2962153 11
-2.189672 1.8067732 -1.3554981 13.272794
-1.6251025 1.8446474 -1.2935002 4.8315248
-1.4487033 1.8288666 -1.4854671 8.6514797
-1.0493307 1.6240672 -1.2821126 4.9072628
0.19115248 1.6566819 -1.5871868 7.25
0.54968011 1.7032109 -1.5929017 5
0.96703601 1.6889389 -1.5413289 5
1.3517371 1.9929782 -1.373777 7
2.0776882 1.714993 -1.4614053 5
2.4710529 1.6040491 -1.324508 2
3.1570489 1.9315598 -1.595192 10.013943
3.474071 1.7695218 -1.5526326 6.0852814
3.7162614 1.6896241 -1.3817776 6.3676062
4.1270604 1.7821558 -1.4955223 9.0322132
4.5930223 1.8254714 -1.4415021 8.8051014
5.0052929 1.9465251 -1.5645247 10.963204
5.5638504 1.8186202 -1.326103 10.973316
5.6290679 1.811837 -1.308097 10.88759
6.1486511 1.7192996 -1.5791085 10.99907
6.4956264 1.8666974 -1.2080657 11.26413
6.8011522 1.8445244 -1.4955317 4
10.963353 1.9891871 -1.3514887 5
11.401337 1.9933197 -1.402194 11
11.676627 1.9852265 -1.3406464 11
16.372311 1.982865 -1.3192616 6.984375
16.407658 1.971257 -1.4376581 7
17.172323 1.9796555 -1.2242173 2
17.694622 1.9685899 -1.2123663 2
18.171698 1.9591284 -1.2073865 2
18.725346 1.969062 -1.4219139 2
18.883919 1.9392387 -1.3819029 2
19.459446 1.8362746 -1.2763362 4
19.858345 1.8677566 -1.561866 5
20.168999 1.8988987 -1.4739907 5
20.708576 1.9616971 -1.4717858 5
21.018946 1.9427068 -1.4525828 5
21.302998 1.9620291 -1.4742996 5
21.831795 1.9544313 -1.4914758 5
22.290876 1.9515131 -1.5242267 5.0416665
22.542202 1.9646671 -1.5555649 6.125
22.952202 1.9680192 -1.507179 6.1875
23.553753 1.9838507 -1.5305102 9.09375
23.900143 1.9826047 -1.4840933 7.0277777
24.180815 1.9823103 -1.4792686 5.8537326
24.619169 1.9494345 -1.402823 4.0546875
24.891342 1.9021604 -1.4392545 3
-8.5412827 2.1450768 -1.3373337 4.9930553
-8.2604265 2.1994395 -1.4175479 13.824549
-7.6444445 2.1676574 -1.4718921 14.980853
-7.4540606 2.1631508 -1.5371346 14.47526
-7.0574908 2.2632914 -1.2932538 15
-5.2133484 2.0769854 -1.5732815 13
-5.090765 2.1219542 -1.3785027 14.621159
-4.4563303 2.3995171 -1.5200951 14
-4.2295408 2.3929684 -1.3541335 14.25
-3.9755356 2.3721852 -1.2477794 15
-2.548044 2.1902738 -1.4782599 13
-1.6458483 2.1768446 -1.2368202 6.9997454
-1.5746732 2.1593633 -1.5267719 6.0279622
-1.0479443 2.2131705 -1.520071 7
-0.35017452 2.0626016 -1.2087065 4
0.020461479 2.0732226 -1.4528161 4
0.42832735 2.0876257 -1.3543081 4
1.1552405 2.0938153 -1.3039452 8.2524719
1.5653785 2.1988361 -1.4248477 8.999999
1.6090071 2.2930067 -1.4309862 11.4
2.2584686 2.1250827 -1.3313667 11
3.1355863 2.0856309 -1.583485 9.0981712
4.3804331 2.2544258 -1.3395288 14.037169
4.4385519 2.1593199 -1.5592036 11.744425
5.0230112 2.1480432 -1.4145838 12.388885
5.2895737 2.3138809 -1.5373467 3
5.9918318 2.1967306 -1.3118105 4.938375
6.0785918 2.1186814 -1.265377 13.991072
6.7734733 2.2509484 -1.5545615 8.9306011
7.0084081 2.2711444 -1.5332545 13.651188
7.3830156 2.2782161 -1.5295765 11.982159
7.7612305 2.2798347 -1.3737825 13.213974
8.1571455 2.2880015 -1.3022823 13.362723
8.5712337 2.3147979 -1.4205692 14.220296
9.0528555 2.3022647 -1.4094967 14.016141
9.5136337 2.3059676 -1.3669981 14.10431
9.8329744 2.3080761 -1.328993 12.487309
10.116342 2.3151309 -1.3285934 13.608784
10.664567 2.3313422 -1.2951759 10.734348
11.063397 2.1132886 -1.3616952 6.6573911
11.367834 2.0849466 -1.4698834 13.038042
11.715715 2.1963143 -1.4273992 14.513535
12.297356 2.3033822 -1.2324269 3
14.20159 2.3832934 -1.3258586 12.773094
14.461189 2.3663285 -1.3873751 11.25
14.899601 2.3926506 -1.3253108 12
16.382299 2.0903921 -1.3869276 4.2345171
16.448614 2.115078 -1.4431875 11.879183
17.838104 2.175817 -1.3402364 10.006315
18.325558 2.2603292 -1.4474564 14.164991
18.504982 2.1415281 -1.4549741 9.96875
19.783615 2.272964 -1.4833038 7
20.263336 2.303946 -1.5277965 7.125
20.706009 2.1005325 -1.5566096 7
21.112072 2.0371222 -1.5279853 6
21.436268 2.0971322 -1.5658045 7.5
21.834999 2.0960314 -1.5512421 7.59375
22.182411 2.1115866 -1.5316129 8.7734375
22.68856 2.1556036 -1.5817473 13.436336
22.967079 2.1723695 -1.5552536 9.7203331
23.26655 2.1378803 -1.5569717 14.589565
23.738911 2.0943298 -1.5337675 13.586594
24.191454 2.1185508 -1.5008812 13.634554
24.586081 2.1990511 -1.3925925 13.292586
24.897575 2.1112561 -1.420027 6.1939821
-8.5319204 2.4387879 -1.4655471 11
-4.9209366 2.493134 -1.3708994 14.875
-3.7577312 2.4238977 -1.4131898 14.555554
-3.5367961 2.4575672 -1.2088647 13
-1.6352023 2.430769 -1.3929517 8.6875
-1.443573 2.4907637 -1.4237866 13.818848
-0.97535706 2.5112753 -1.3855789 13.799383
-0.56124711 2.5197449 -1.3981565 13.902344
-0.2064897 2.5285225 -1.4017901 13.708333
0.32832029 2.51722 -1.2469394 12.25
0.64055061 2.5264297 -1.4751848 12.25
1.1340799 2.4983306 -1.428543 13.583333
1.536658 2.4640465 -1.2813475 14
1.8838696 2.5515451 -1.3810248 12.25
2.0948801 2.5908413 -1.4684732 13.708333
2.5044017 2.5680528 -1.250162 12.25
3.0378313 2.588551 -1.450633 12.166666
3.4649463 2.6140962 -1.4198043 13.8125
3.833904 2.6246026 -1.3827232 13.814816
4.3594961 2.581399 -1.499441 14.622139
5.0324588 2.5531704 -1.3896189 14.999995
5.4038949 2.6702964 -1.4251188 14.640785
5.7471485 2.676681 -1.4346457 14.482422
6.0674706 2.4473169 -1.2335732 14.691195
6.6852674 2.484292 -1.4872923 14.913564
7.0353804 2.5224569 -1.4530122 14.7382
7.4754615 2.5084157 -1.4063082 14.869989
7.7754159 2.4710028 -1.3276656 14.721242
8.1992245 2.4789858 -1.2375031 10.710632
9.0877304 2.4800811 -1.2445121 14.695738
9.2731991 2.5059879 -1.2272389 14.593242
9.7758875 2.4818573 -1.316931 14.16657
