# .PCD v0.7 - Point Cloud Data file format
VERSION 0.7
FIELDS x y z intensity
SIZE 4 4 4 4
TYPE F F F F
COUNT 1 1 1 1
WIDTH 1254
HEIGHT 1
VIEWPOINT 0 0 0 1 0 0 0
POINTS 1254
DATA ascii
24.413225 2.4526894 4.9824662 14
16.407566 -1.6530621 5.5988445 6
-3.2609286 -0.90733737 5.3981819 2
-3.0551953 -0.98493588 5.4650412 0.59315163
-2.6091785 -1.0106535 5.4518318 0.25
-2.2270017 -1.0112307 5.4471121 0.29166669
-1.7924377 -1.0103792 5.5053854 0.75
-1.2704406 -0.99550426 5.352417 1.5
-0.94320226 -0.99098647 5.397243 1.25
-0.6349678 -0.98971266 5.4212146 1.25
-0.25046957 -0.98551083 5.4464736 1.1666667
0.18644398 -0.97565705 5.4335093 0.83333331
0.60213327 -0.96869957 5.3993211 1.3333334
1.0648346 -0.96041483 5.3885775 0.75
1.4105392 -0.96318388 5.3551435 2.5
1.7361903 -0.95838636 5.4215488 0.55555558
2.2296073 -0.95531225 5.4358234 0.66666669
2.6131105 -0.93825144 5.3923388 1.5
3.0796378 -0.96751523 5.4757929 0.2013889
3.3707907 -0.94607234 5.3020983 0.14250578
3.7838187 -0.90332156 5.4927545 2
4.1199274 -0.93765396 5.4479685 0
4.5192585 -0.92635131 5.5183125 2
5.4148564 -0.93225116 5.5667973 4
9.8784876 -0.88983089 5.5201778 4
10.206359 -0.86808085 5.5268312 2.4166667
10.593314 -0.89370942 5.4432011 2.75
11.023516 -0.88458133 5.4153104 2.5277777
11.382971 -0.87012136 5.3742399 3.0625
11.698199 -0.87053263 5.452013 3.0625
12.29859 -0.86508328 5.4075813 4.5
12.74685 -0.85973907 5.2772398 4.09375
13.085162 -0.86570626 5.3220911 4.0859375
13.450406 -0.86410969 5.2975936 4.0584488
13.86945 -0.86147416 5.3866725 4.0972223
14.1638 -0.86748648 5.3049784 4.0972223
14.637746 -0.88497919 5.3999691 4.0802469
14.973058 -0.89506531 5.4615445 4.1666665
15.479027 -0.89459884 5.4574819 4.3518515
15.866716 -0.89979357 5.4748602 4.625
16.282349 -0.83760095 5.4350853 6.25
16.416906 -0.8310113 5.3724356 6.53125
17.596926 -0.8653183 5.5043073 6
17.830307 -0.87823617 5.2845774 6
18.247477 -0.87170744 5.2599201 6.0123458
18.699417 -0.86149418 5.392272 8
18.984341 -0.88750601 5.3120975 7
19.347363 -0.93728077 5.333189 5
19.779945 -0.84205329 5.3937378 11
20.275066 -0.87801224 5.3495708 6.75
20.612419 -0.87674052 5.3900728 6.5
20.934435 -0.86756855 5.397902 6.5
21.30307 -0.85821533 5.3811622 6.75
21.677982 -0.86783767 5.4110432 6
22.157932 -0.86967474 5.372859 6.25
22.596285 -0.87957883 5.3610654 6
22.997589 -0.86575675 5.4949474 6
23.409849 -0.89346004 5.2965117 7.75
23.934746 -0.95522577 5.3337975 7
24.203295 -0.95097601 5.479763 7
-3.2829442 -0.63448483 5.4207067 6.125
-3.1363547 -0.64276743 5.3607216 6.0868011
3.5605979 -0.60067457 5.3506985 5.2608299
3.658287 -0.59734654 5.2801981 4.18502
12.22039 -0.53666914 5.3231316 7.742713
12.62795 -0.52166724 5.449729 7.9297395
13.034004 -0.51022941 5.4617634 8.0201406
13.258768 -0.54087639 5.3897495 7.7875147
16.372284 -0.61153203 5.4012337 8.0351858
16.407848 -0.62051725 5.4745159 8.0000353
17.901905 -0.57068396 5.3398066 8.8875008
19.091864 -0.59863961 5.520052 8.333333
24.515003 -0.49656528 5.4923811 10
-3.2738357 -0.24511796 5.4383383 12
-3.1587982 -0.24122766 5.3034725 11.983898
0.36315587 -0.18591969 5.2102056 6
0.65892577 -0.025709204 5.2595348 6.75
0.80751097 -0.04614367 5.560688 6.5
3.5556302 -0.23262244 5.3272991 11.486335
3.6903 -0.21964911 5.3264885 10.561579
12.246729 -0.28341582 5.3090739 11.187605
12.597264 -0.24621448 5.4120836 11.803709
13.04547 -0.23007521 5.4144554 11.917974
13.263338 -0.23732275 5.3360262 11.833334
16.383179 -0.18356495 5.3342714 12.988542
16.410404 -0.15722142 5.3200808 12.997704
17.857548 -0.1765058 5.3615856 13.049653
19.078293 -0.27244568 5.458652 12
24.503094 -0.16275865 5.455286 13.166666
-3.2660272 0.1472421 5.4007206 3
-3.1372745 0.15031199 5.3975143 2.9935112
3.5505795 0.16548744 5.3164949 3.3254092
3.7165241 0.16649856 5.3539429 4.5929012
12.62648 0.019195866 5.2737255 7.5
12.979179 0.022829033 5.294261 7.5
16.394037 0.14764464 5.3017645 2.0232205
16.413006 0.30315322 5.3844104 2.0492687
17.909405 0.16772889 5.4765258 1.7834201
18.053701 0.34671074 5.4447379 2.0225694
19.128454 0.086918421 5.5082312 1
19.343822 0.34714836 5.5095119 4
19.614439 0.36096391 5.560308 4
23.28348 0.35890043 5.3201566 14
24.52713 0.13598207 5.4338288 2.0833335
-3.2820609 0.54468858 5.3949795 9
-3.1392686 0.55824697 5.3629746 9.0991364
3.5432961 0.58258486 5.3386583 10.665753
3.7578664 0.53282899 5.3584061 12.082755
16.388073 0.57475567 5.3010306 6.9226189
16.408518 0.64877415 5.3437257 6.8752742
18.211636 0.47186932 5.2480202 4
18.559946 0.49065697 5.3486867 4.2916665
18.90321 0.4633736 5.5022449 2.5
19.344093 0.42888385 5.4586039 4.3333335
20.526712 0.42261779 5.5406041 4
24.741604 0.61495805 5.5678902 5
24.873722 0.688362 5.2878494 1
-3.2615829 0.89060587 5.3759089 14.171429
-3.1190081 0.88395512 5.4556756 14.102386
3.565448 0.85784638 5.4224596 13.018418
3.6353161 0.86667776 5.5077114 13.45
16.381166 1.0477279 5.3628678 13.167901
16.413153 1.1233886 5.41043 9.761344
-3.0802174 1.3149641 5.341608 14.761806
-2.4988456 1.4266829 5.4134521 14.78125
-2.2284141 1.5642161 5.3955989 15
-0.59047019 1.453145 5.4519672 15
-0.23215587 1.451625 5.4117775 15
2.3639202 1.4572589 5.4631395 14.5
2.4528704 1.425788 5.4492631 14
3.544951 1.2866479 5.3081865 14.852344
16.370218 1.28583 5.3559933 14.833334
16.408003 1.5182769 5.408556 13.373598
22.041811 1.5873866 5.2418928 12
-3.3595378 1.7046494 5.4019456 15
-3.1803026 1.706394 5.517374 15
-2.230124 1.6020899 5.5476079 15
3.531774 1.6905003 5.3771615 15
8.6675215 1.8048862 5.4588523 14.979167
9.8357725 1.952929 5.3907475 14.916666
10.141257 1.8490311 5.3353763 13
10.502804 1.8793975 5.4063568 14
11.934715 1.8168076 5.4296823 14.859375
15.374654 1.8331772 5.2847209 13.529166
16.34433 1.8607897 5.4250288 13.747222
16.414827 1.79864 5.3223639 14.823037
17.700737 1.8364915 5.5772786 15
18.612495 1.7874415 5.3827891 13.811111
21.886879 1.7162461 5.3268094 13.5
22.018673 1.6936398 5.3075051 8.5
23.13121 1.9405184 5.414444 14.088541
23.34256 1.8970411 5.3948002 13.5625
23.77977 1.9196107 5.3524413 7.5
24.311659 1.8827188 5.3560715 10.968641
24.57604 1.8666143 5.4366894 10.5
8.6450472 2.0313315 5.4368267 15
9.8251171 2.0385237 5.4506731 14.998071
11.9047 2.1132634 5.5121932 13.75
12.653427 2.1893842 5.2303944 14.5625
13.066531 2.1697321 5.2546821 14.739583
13.335092 2.1753967 5.3906198 14.842593
13.914543 2.116879 5.3436756 14
14.329458 2.138185 5.3593183 14.942516
14.655953 2.1438675 5.4493432 14.977376
15.055948 2.1212287 5.4516296 14.97591
15.323572 2.1212106 5.4657016 14.789062
15.856542 2.1000686 5.3384748 14.828703
16.144291 2.0378501 5.5040035 12.21875
16.443569 2.021919 5.3672514 12
17.983667 2.0918674 5.5483246 15
18.175186 2.0874557 5.5534754 12
18.572676 2.0975578 5.3566976 15
18.942814 2.0852795 5.4901862 13.75
19.438358 2.0874691 5.523325 14.25
19.928642 2.1022472 5.5184135 12.875
20.100122 2.1251636 5.3850985 13.395834
23.127171 2.070528 5.3790197 14.774269
23.210007 2.2038667 5.2860599 7
24.35532 2.115931 5.4151058 13
12.678911 2.4299459 5.2343788 13
13.010061 2.5276098 5.2868443 14
13.368423 2.5200624 5.4327374 14.921875
23.18816 2.4166069 5.225956 7
16.464207 -1.6625366 5.6360035 6.5
16.39537 -1.4501845 5.6361704 7
16.425667 -1.5057807 5.6266937 6.25
23.029564 -1.2316023 5.79179 8
-3.2535851 -0.96871614 5.7610016 1.6666667
-2.9755349 -1.0086963 5.78092 0.29742432
-2.6621242 -1.0282276 5.8628464 0.3125
-2.2295375 -1.012502 5.8465781 1.25
-1.7616754 -1.0197639 5.8463826 1.25
-1.3907995 -1.0148995 5.7821579 0.75
-1.0108829 -1.0179408 5.9412718 1.5
-0.57196105 -1.0006882 5.8056817 1
-0.10880397 -1.0025902 5.8384619 3
0.12879238 -0.99373347 5.8581734 1.5
0.68199432 -0.99059182 5.8598723 0.44444445
0.95142269 -0.98299098 5.7828779 0.75
1.3905072 -0.97558904 5.7216363 0.8888889
1.7755398 -0.96885127 5.8240089 1
2.1512482 -0.96697515 5.9019084 0.91666669
2.7059834 -0.97373539 5.8257885 0.22916667
3.0858378 -0.9775328 5.7912512 0.3203125
3.36028 -0.95433784 5.7310438 1.625
3.8772256 -0.9136343 5.8595672 0.19791667
4.2149544 -0.91564405 5.7895679 0.96875
4.6561356 -0.93620682 5.7613034 2
4.9480371 -0.95621288 5.7870784 2.5
5.4117093 -0.93666828 5.759922 4
5.6107559 -0.95197505 5.9807277 4
6.2205815 -0.93112993 5.8707271 6
6.4938517 -0.93227339 5.7887163 6
9.4691505 -0.9006651 5.9250531 2
9.8104391 -0.92598307 5.7123947 3
10.144078 -0.88497686 5.7447586 2.2083333
10.657764 -0.87660098 5.6989985 2.203125
11.070181 -0.88928223 5.8391876 1.0460069
11.398975 -0.87561959 5.7093816 2.1851852
11.873862 -0.87730664 5.6682434 2.0100307
12.2041 -0.88647848 5.708457 2.0685763
12.648958 -0.88952827 5.738503 2.1503906
13.09198 -0.8821457 5.8272705 2.0996094
13.437047 -0.88650703 5.783834 2.3703704
13.809703 -0.89578772 5.8385501 2.3842592
14.173323 -0.90823013 5.900197 2.5763888
14.562982 -0.90783399 5.8383865 3.0920138
15.015097 -0.87679291 5.7458811 4.5
15.447331 -0.89217681 5.6960921 4.0246911
15.839597 -0.89526349 5.7627301 4.2407408
16.268293 -0.89969158 5.7012758 4.0648146
16.604403 -0.8984369 5.739048 4.0859284
17.043184 -0.90028316 5.8509755 4.1119308
17.354811 -0.89541346 5.9026608 4.5173612
17.87886 -0.88077748 5.7439089 6.416667
18.128283 -0.87550724 5.8322468 7.166667
18.595652 -0.8888033 5.7782526 7
18.901842 -0.86691976 5.6911612 8
19.232273 -0.87690878 5.8974371 8
20.135099 -0.84179211 5.6980896 12
20.593399 -0.87240511 5.6830025 6
21.022758 -0.88289571 5.7766886 6
21.386066 -0.88206971 5.6904664 6
21.784782 -0.88032562 5.7997847 6.5
22.160332 -0.87652349 5.6988187 6.3333335
22.643097 -0.87470913 5.6936693 6.166667
22.950495 -0.82480431 5.88657 6.0520835
23.765812 -1.0014424 5.7514114 7
24.223946 -0.88099396 5.8132324 6.125
24.55372 -0.87579268 5.8929315 6.0277772
-3.3074012 -0.67872751 5.7555676 5.9285717
-3.1453786 -0.62551558 5.7851439 7.1591878
3.8678603 -0.74574816 5.6627851 1
12.521795 -0.73844361 5.6478786 10
16.366701 -0.60030323 5.6659374 9.875
16.5054 -0.62707233 5.6676383 7.5010757
16.98728 -0.66045684 5.7372875 7.2381611
17.229874 -0.5161342 5.8221707 10
17.832123 -0.52776402 5.7716141 9.0435133
18.204144 -0.62953722 5.9478369 8.0625
19.037878 -0.5926739 5.897193 8.0666666
22.973104 -0.57456273 5.824542 8.7071133
24.187767 -0.47138056 5.9599171 10.5
24.444201 -0.47401813 5.8639536 10
-3.2495675 -0.31869212 5.8576174 11.464286
-3.1445818 -0.19874758 5.8137226 13.177431
0.89156944 -0.039842069 5.7703686 6.75
16.358788 -0.16782965 5.620677 12.941667
16.470203 -0.28978103 5.672215 11.90428
16.952635 -0.26499531 5.7606082 12.190473
17.303764 -0.11103821 5.8001132 14
17.83206 -0.20691651 5.8050628 12.720853
18.081303 -0.33558077 5.9807334 11.5
19.081793 -0.16089912 5.8029761 6.8095241
22.963409 -0.1916467 5.8486195 12.827963
24.199286 -0.17067732 5.9628959 12.5
24.429323 -0.17695418 5.8846636 13
-3.3042712 0.1490116 5.7633314 2.9285715
-3.1440499 0.11780652 5.7811408 2.7703438
16.345089 0.16355415 5.6627727 2.4010415
16.566206 0.17255031 5.7043419 2.9228466
17.023098 0.17734031 5.7935863 2.6666465
17.205441 0.057665847 5.873086 14
17.958721 0.17236042 5.7651238 1.911603
18.05389 0.17228755 5.8252988 1.609375
19.145189 0.12204337 5.8635459 1.6666666
19.447453 0.2659595 5.6820955 3.8828156
19.862551 0.37147486 5.6341848 4
20.308424 0.3986187 5.6685843 4
20.541641 0.3071838 5.8178473 3
22.972624 0.19744866 5.8889985 2.3156533
24.205173 0.30251831 5.963459 1
24.446373 0.12027352 5.8712554 1
-3.3001571 0.56873697 5.7523246 9
-3.1571293 0.58680773 5.7314382 9.5227089
3.648226 0.56874365 5.6081862 9.0769234
16.38871 0.74423563 5.6293688 5.0625
16.549923 0.55679232 5.7122002 7.8357067
17.017445 0.57005322 5.8031025 7.5541849
18.044561 0.61777604 5.9674053 9
19.571619 0.40489715 5.6146822 4
19.975128 0.42974436 5.6279373 4
20.221382 0.40072384 5.6239982 4
22.958183 0.57018816 5.9005618 6.3696289
24.222073 0.71142328 5.9453611 4
24.738449 0.66673088 5.7977996 6
-3.3070965 0.91627777 5.7658405 13.85
-3.1601167 0.94076103 5.845809 14.340565
16.38237 1.0558565 5.6553907 7.25
16.570082 0.95926279 5.7359676 12.913616
17.037371 1.0602742 5.8256073 13.650413
17.70056 0.89541179 5.9846268 12
18.003479 0.93138373 5.9681773 13
22.958443 1.0108708 5.8570495 11.399973
24.217232 1.1227987 5.9544373 7
-3.1253128 1.3116828 5.6735287 14.780903
-2.5950465 1.4326593 5.8655186 14.875
-2.2774801 1.5849485 5.6830482 15
-0.82369423 1.4867083 5.6112099 15
-0.67746246 1.4719748 5.7813139 15
-0.17247447 1.4724711 5.7191162 15
2.2893424 1.4572692 5.7310934 14.5
2.4264247 1.413239 5.7247405 13
6.3569875 1.5191625 5.9514194 15
6.4462314 1.5252908 5.9692039 15
6.8569942 1.5144517 5.9953284 15
16.387423 1.4510515 5.6654921 10.25
16.493717 1.2843418 5.7423582 14.861007
17.014244 1.239616 5.848197 14.94043
22.946802 1.3294661 5.8881974 14.829928
24.213888 1.5026519 5.9482894 10
-3.3100471 1.7307065 5.7634153 15
-3.1423857 1.7224488 5.7183819 15
-2.2638087 1.6259353 5.8561797 15
3.3463161 1.7813412 5.8211865 15
3.6940553 1.8019806 5.8725605 15
8.5566254 1.7524815 5.7925177 14
9.7998581 1.9331961 5.7977777 14.5
10.208965 1.8446546 5.7356572 12.75
11.885664 1.8139758 5.8464775 14.746094
15.271275 1.8363624 5.8015499 14.808099
16.37207 1.827294 5.6683044 14.619791
16.527134 1.7835569 5.784337 14.794058
17.025059 1.7544197 5.8636389 14.912071
17.386759 1.7893751 5.8610244 8
17.650564 1.8852959 5.8089395 14.25573
18.556534 1.7921815 5.8462543 13.700001
21.935865 1.7893842 5.6820693 11.916667
22.959057 1.7176473 5.9234838 14.903307
23.329285 1.9355826 5.6647787 8.083334
24.219978 1.8755916 5.828043 11.375
24.554884 1.7586875 5.7528977 10
24.994764 1.7728949 5.9902797 15
9.7917824 2.2033868 5.6626372 14.944445
11.884216 2.1552052 5.889164 14.25
13.440598 2.2086463 5.759613 14.333334
15.181805 2.1576016 5.9727068 9
15.506073 2.1787562 5.6477728 14.937645
15.853616 2.1721179 5.6492362 14.948487
16.221298 2.2038977 5.7257481 14.961769
16.439705 2.2176318 5.947648 14.015625
17.899168 2.0627317 5.7717581 14.555555
18.106924 2.1413398 5.9265976 14.354167
18.556889 2.085947 5.8022017 13.666667
19.02404 2.0788152 5.8374853 13.25
19.372267 2.0780995 5.7463713 12.625
19.80246 2.0757113 5.8658152 12.9375
20.133892 2.0769753 5.8258686 13.3125
20.567278 2.0855606 5.7481766 14.146605
20.95273 2.0903511 5.8089252 14.114583
21.298765 2.080745 5.7981892 13.796875
21.653679 2.0877514 5.8597937 11.25
22.162045 2.0891922 5.9428692 11.75
22.496964 2.0855565 5.9445992 11
23.103271 2.1020427 5.6776619 12.8431
23.631491 2.015336 5.9690757 14
24.36327 2.0422947 5.7750344 12
13.025667 2.5697205 5.7012019 13
13.353144 2.46738 5.7325544 14.990612
15.174023 2.5865054 5.7593169 15
15.43785 2.5897465 5.8699903 13
15.785965 2.4283342 5.6749701 14.15
16.286076 2.4619713 5.7862253 13.75
16.462143 2.5561733 5.8931465 13.416666
-3.3626945 -0.96270472 6.2141891 2.6428573
-3.0864048 -1.0195483 6.1053658 1.6623983
-2.6878345 -1.0564837 6.2341847 0.2013889
-2.262259 -1.0383053 6.1493893 0.41666666
-1.7556462 -1.0245504 6.1765289 1.5
-1.4434309 -1.0300236 6.2676277 0.5
-0.94041461 -1.0286345 6.1985545 0.66666669
-0.58181852 -1.0272205 6.2665615 0.75
-0.16892926 -1.0117433 6.1631012 1.5
0.19563079 -1.0124302 6.2557111 0.75
0.54923612 -1.0053972 6.2338791 0.5
1.0080051 -0.99754333 6.2337265 1.5
1.470844 -0.98875213 6.2114553 0.625
1.7773483 -0.98499131 6.1779709 1.75
2.2338119 -0.98507404 6.2321301 1.0833334
2.6319032 -0.99783266 6.2578597 0.52777773
3.0936606 -0.9788959 6.151731 0.2013889
3.5011301 -0.98719746 6.1810236 2.75
3.7959523 -0.91926396 6.3090019 0.38194445
4.2131443 -0.94237924 6.1760263 0.27777776
4.6208649 -0.95331228 6.1885591 2.25
5.0147271 -0.95050097 6.1552582 2.2777779
5.365335 -0.95964235 6.2431889 3
6.1213264 -0.93577945 6.3281808 4.75
6.6099329 -0.95039535 6.3025069 6
7.855896 -0.92724168 6.2819514 8
8.2612305 -0.93335855 6.2331767 8
9.3968258 -0.92943192 6.2762842 1.0972222
9.8027563 -0.91095692 6.2042155 0.30555555
10.296553 -0.88893473 6.1566381 0.21875
10.68294 -0.89770919 6.1474314 0.14930555
10.962171 -0.89791179 6.1402993 0.070891209
11.485388 -0.89632452 6.086874 0.019772375
11.832277 -0.90141207 6.1642599 0.13541667
12.148228 -0.90516323 6.1717367 0.65364581
12.621714 -0.91015267 6.2231016 0.18373843
13.026637 -0.90072656 6.2677212 0.71701396
13.409834 -0.90255082 6.2830853 0.53710938
13.755854 -0.90203285 6.2548809 1.1770834
14.261141 -0.89978194 6.0879602 2.2685184
14.728596 -0.9204179 6.0916204 2.0370369
14.965274 -0.92222828 6.1503048 2.0959203
15.434804 -0.93124962 6.1398497 2.2083335
15.828236 -0.92864704 6.2117152 2.2986112
16.200115 -0.93013471 6.2138672 2.5370369
16.554358 -0.93972367 6.2953229 2.3958333
17.002464 -0.9025504 6.1028318 4.416667
17.407125 -0.90619278 6.1921811 4.3333335
17.72249 -0.89500141 6.2138109 4.1285
18.189764 -0.90005875 6.3042932 5
18.662642 -0.92668414 6.1811867 4.1666665
19.067177 -0.89976484 6.1746073 4.125
19.35638 -0.91415739 6.2784376 3.908854
19.871906 -0.91705829 6.2177391 4.2222219
20.188797 -0.91120946 6.2751513 4.25
20.549627 -0.90064049 6.27248 4
20.941122 -0.8957727 6.27777 4
21.355022 -0.89769691 6.2659769 4.5
21.774517 -0.90801215 6.1668682 4.9479165
22.192759 -0.91583657 6.2873521 4.2447915
22.557316 -0.90354943 6.2525454 5.25
22.9237 -0.82310945 6.1594038 6
24.334984 -0.88722837 6.145247 6.28125
24.731798 -0.875857 6.1163716 6.0833335
24.942966 -0.89235425 6.1022348 8
-3.282856 -0.71249682 6.2848811 6.2654762
-3.1704593 -0.6957016 6.064394 6.4994488
17.815729 -0.67858917 6.1338029 6.8919067
18.253811 -0.5512414 6.0758543 8.625
19.027275 -0.57595521 6.3261805 7.6666665
22.93642 -0.58488464 6.1263928 8.3201408
24.369396 -0.48013192 6.2818093 9.7500544
24.406218 -0.49243498 6.2210665 9.5
-3.2481441 -0.15803498 6.234252 6.5523806
-3.1507077 -0.25526688 6.1189337 12.116745
1.1290774 -0.064198352 6.1789875 6.5
17.838835 -0.26271757 6.132853 11.982758
18.17465 -0.31526864 6.0807567 11.351157
19.061045 -0.13907966 6.3105392 6.0277777
22.927893 -0.17562643 6.1177206 12.999834
24.365093 -0.17791033 6.257051 12.982292
-3.2820473 0.13557786 6.2709274 2.8854165
-3.1640148 0.16075259 6.0943594 3.0012009
17.924446 0.066502847 6.1537466 2.625
18.299986 0.13621342 6.0688772 3.1041665
18.628122 0.096788883 6.2849007 3.1666667
19.071655 0.11072522 6.1986833 8
19.339769 0.15803882 6.059001 2.9488933
20.571978 0.19804555 6.0986371 2
22.931087 0.18849425 6.1612792 2.43823
24.30825 0.21897635 6.2737474 1.7580357
24.413568 0.21010607 6.277019 1.8708334
-3.2667365 0.5803265 6.1903238 9.208334
-3.1695452 0.56830478 6.0941858 8.4316292
17.962606 0.4342885 6.016139 6
18.316856 0.63357466 6.0370655 8.8249998
22.923531 0.55825508 6.1796393 6.7422051
24.187164 0.70204204 6.1829023 4
24.59437 0.55194896 6.2524085 4.9583335
24.955502 0.68993723 6.1867685 6
-3.2454443 0.93002176 6.2532916 13.959954
-3.1852846 0.92613924 6.0925107 13.636519
17.932735 0.87916464 6.0391488 11.75
18.294447 0.92716086 6.0408368 12.565151
22.905977 1.0106802 6.2308016 12.598728
24.188812 1.0829287 6.1937327 6.8000002
-3.2174687 1.4079002 6.2099705 12.625
-3.1697578 1.2587399 6.1680703 14.852084
-2.5907526 1.4302607 6.2070704 14.798611
-2.3680933 1.5354233 6.1287785 13.75
-0.87246978 1.4684995 6.1592989 14.541666
-0.57164186 1.4085275 6.2447186 14.888888
-0.10773572 1.3995024 6.2176056 14.75
2.2493303 1.4497513 6.2751389 14.888889
4.3396721 1.5573242 6.3062563 14
4.6273537 1.5525602 6.3571243 15
4.9524722 1.5614047 6.3893023 15
6.3405142 1.517687 6.0090923 15
6.7018137 1.5238047 6.0633378 15
7.0347614 1.512549 6.0920582 15
7.4824791 1.52645 6.1661162 14.958333
7.9202056 1.533711 6.2254772 14.958334
8.3085508 1.5022364 6.2604985 14.958333
8.6246929 1.5138159 6.2925563 14.99291
9.0052443 1.5084077 6.3627586 13.416667
9.3470402 1.5117415 6.3899984 11
9.6854248 1.5082016 6.391263 15
22.919731 1.2734431 6.1160116 14.955043
24.192368 1.4972347 6.1886206 9.7749996
-3.4334557 1.7296695 6.2663059 14.833333
-2.9012003 1.8155391 6.1815109 15
-2.5334589 1.6669197 6.0166807 15
-0.965702 1.6797357 6.1940207 15
3.3568077 1.7877617 6.200285 15
3.7478025 1.7988843 6.233757 15
4.2970977 1.663798 6.2663374 15
8.4924564 1.7389938 6.142642 14
9.7361622 1.8646042 6.1740522 14.993055
10.288938 1.83108 6.2825284 12.75
11.811462 1.7565006 6.1090546 12
15.191272 1.7522321 6.3278713 9.875
15.221608 1.8008729 6.238102 14.827148
16.188538 1.9615411 6.3160186 12.96875
16.604916 1.8850513 6.1314669 14.7288
16.991058 1.8745918 6.1295609 13.3125
17.580553 1.8728806 6.2047286 14.0625
17.657291 1.812824 6.145648 13.1875
18.493675 1.7755644 6.1660318 14.88497
21.85948 1.7508004 6.099575 11.555555
22.916481 1.7044764 6.2068496 14.83572
23.29694 1.99253 6.1155362 14
24.163916 1.8717618 6.1963196 12.5
24.976509 1.7554157 6.1526346 14.5
9.7094145 2.032136 6.1661587 14.997428
13.323582 2.2058277 6.1566162 14.604939
13.664598 2.1263189 6.1302919 13
15.190447 2.2189066 6.357399 9
15.230892 2.2362871 6.3767223 14.942383
16.268396 2.0517404 6.2556996 14.197916
16.422138 2.1056275 6.1335669 14.375
18.351255 2.1556063 6.0079918 11
18.611259 2.1849575 6.0324221 14.625
19.070084 2.1052194 6.0445728 14.732422
19.48119 2.12041 6.1177154 14.941292
19.835579 2.1053543 6.1832218 14.775442
20.262568 2.0824754 6.2353597 14.570312
20.6481 2.096837 6.1888614 14.634789
21.026144 2.1087277 6.2412982 14.819247
21.38604 2.0734658 6.11235 13.467592
21.6604 2.0825291 6.2349844 13.125
22.223377 2.0799751 6.1532326 11.6875
22.624786 2.0744271 6.1209898 11.25
22.923801 2.0333967 6.239006 8.583334
23.746084 2.0132489 6.1874151 14
24.65213 2.0730519 6.2168765 15
9.7112188 2.4292376 6.1871338 15
13.058922 2.5580659 6.0368981 13
13.274008 2.4392838 6.2520142 14.873264
15.092731 2.5738285 6.3548636 15
15.288185 2.5076432 6.1359234 14
15.894075 2.5810502 6.1062503 14
16.268921 2.5372195 6.3229318 14.625
16.414913 2.4677629 6.2240992 14.676433
19.025118 2.4275374 6.104003 14
19.492867 2.4255977 6.1981745 14.166667
19.714901 2.4184022 6.2160692 13
23.019371 -1.643649 6.5365791 6
17.75222 -1.254025 6.7085447 9
22.951729 -1.3078628 6.5504494 6.0644531
-3.2709579 -0.98232448 6.5706568 3.1329861
-3.1660025 -0.99438137 6.5976701 3.0994542
-2.510129 -1.0589354 6.6587658 0.062757201
-2.2314377 -1.053059 6.6005311 0.77777785
-1.8694431 -1.0505037 6.5298481 0.625
-1.4005708 -1.0432992 6.6019249 0.54166669
-1.0001566 -1.0418615 6.701602 0.625
-0.53168732 -1.0319107 6.6473904 1
-0.16482259 -1.0276356 6.5997505 0.75
0.26948744 -1.0161295 6.5951376 1.5
0.6262579 -1.0151589 6.6238837 1.3125
1.1370455 -1.0174836 6.6549377 0.875
1.4060118 -1.0078347 6.5937519 2.75
1.8894994 -1.0062881 6.6065841 0.44444442
2.2574859 -1.0151408 6.6024179 1
2.6292217 -1.0089386 6.6287403 0.41666666
2.9016116 -0.98872328 6.5852051 1.0833334
3.3684402 -0.99394536 6.6053195 2.6666667
3.8662784 -0.92797238 6.644526 0.24305554
4.2325974 -0.96292347 6.6174302 0.75
4.5947747 -0.97050589 6.6185513 0.40277776
4.9574037 -0.95252812 6.5907974 2.46875
5.5147691 -0.96704501 6.669384 2.1141975
5.8036909 -0.9618113 6.6505146 3.25
6.1186428 -0.95460725 6.6963673 4.375
6.6376014 -0.95754439 6.5743294 6
7.0953655 -0.9586587 6.4984484 6
7.2383995 -0.96252 6.7634468 6
7.8291001 -0.88451654 6.665884 7.5
8.2555828 -0.93854105 6.6562967 8
8.6022072 -0.92153442 6.6995168 3.5
9.1085424 -0.95711374 6.6222076 0.33333334
9.4748621 -0.92498589 6.5081577 0.79166663
9.7088375 -0.92176622 6.6119003 1.2916667
10.220306 -0.90731174 6.552526 0.37037036
10.603924 -0.89397514 6.476315 0.9453125
11.030642 -0.89815313 6.6288748 0.3125
11.477762 -0.90875888 6.6288943 0.45023146
11.837652 -0.90751803 6.6221242 0.53125
12.235698 -0.90274656 6.5111108 0.39583334
12.679167 -0.90899086 6.5090704 0.328125
13.080563 -0.91292995 6.6100316 0.27658421
13.414933 -0.91323447 6.6454778 0.66145831
13.84631 -0.90959084 6.4946313 0.19097221
14.246063 -0.92114341 6.5898571 0.22135417
14.636406 -0.94136995 6.5742855 0.11024306
14.993652 -0.93043566 6.6587925 0.52777779
15.398346 -0.92733037 6.6085739 1.2708334
15.795057 -0.94576389 6.6944919 0.6111111
16.212648 -0.94447345 6.6428337 1.0771605
16.61412 -0.95289874 6.6641145 1.109375
17.013998 -0.93106669 6.5777755 2.2239583
17.450466 -0.91291356 6.6054239 3.1875
17.812893 -0.88218009 6.4894614 4.3472223
18.304859 -0.91989851 6.5493526 3.09375
18.673155 -0.92167222 6.6689606 2.7299383
19.081312 -0.92988914 6.6661429 2.3354166
19.394226 -0.89889765 6.6334558 3.0001948
19.819605 -0.93144512 6.6493974 2.6423612
20.234884 -0.92315787 6.6936474 2.9409723
20.573637 -0.91918564 6.5494738 4.291667
20.983757 -0.909733 6.5341024 5.0833335
21.331604 -0.9008261 6.5332294 5.166667
21.728872 -0.89964676 6.4819527 4.1080246
22.081182 -0.90771246 6.580852 4.4965277
22.689438 -0.90297788 6.5157452 4.135417
23.02623 -0.89134026 6.5929871 4.0886502
23.319496 -0.8943786 6.6535501 4.1302085
23.657276 -0.89800739 6.7235594 4.40625
24.22341 -0.88689059 6.6394715 6.2000003
24.659098 -0.89445281 6.5285711 6.9479165
-3.2883432 -0.69229674 6.6376834 7.1254921
-3.186564 -0.62016821 6.4349914 8.264286
17.743843 -0.62902117 6.5660343 7.0280924
18.123196 -0.73045653 6.6866322 10
18.980446 -0.63244128 6.7009015 6.291667
19.254057 -0.78310454 6.5596476 12
23.022722 -0.62198859 6.5657487 7.4793954
23.534695 -0.64939356 6.661705 7.2327514
23.643644 -0.54775882 6.7232018 9.4169111
24.300446 -0.54130244 6.6547637 8.7481909
24.597813 -0.51997465 6.7537956 10.25
24.90357 -0.43306869 6.7912416 10.5
-3.2914886 -0.32286781 6.5662966 11.882135
-3.1866927 -0.23882616 6.4655981 12.479167
1.3903244 -0.066534311 6.59764 6.3499999
17.804617 -0.20025446 6.6370907 12.680898
18.175325 -0.025290562 6.6764412 7.3886719
18.574995 -0.017828554 6.7526002 7.5
19.032654 -0.019360304 6.6868286 1.0116597
19.338549 -0.062470239 6.6131897 5.1666665
19.870829 -0.021180481 6.7580409 0
20.173304 -0.0076676309 6.6836047 0
20.450237 -0.00057864189 6.7072549 0
23.004068 -0.2915605 6.5833192 11.679469
23.423531 -0.26063988 6.6639333 12.185711
23.705811 -0.20108426 6.7170167 12.838542
24.288574 -0.20372598 6.6651344 12.656282
24.430157 -0.30124718 6.7633471 12.0625
24.827639 -0.09455245 6.7983642 13
-3.3124883 0.12565933 6.6710114 3.2386105
-3.1887009 0.177903 6.4736962 2.0905259
17.985289 0.019081861 6.4039268 14
18.211218 0.030859392 6.5595102 14
18.572546 0.016460408 6.6924868 7.5
18.96833 0.026642445 6.6518555 7.5
19.250216 0.022333629 6.5471354 1
19.939974 0.0026632696 6.6977315 0
20.327133 0.021027081 6.614377 0
20.516245 0.022468673 6.5336285 0
22.993185 0.2007277 6.5871749 3.0159302
23.408066 0.18582976 6.6842518 2.916455
23.628208 0.27230009 6.7524996 5.1666665
24.348803 0.17014876 6.663372 1.9493055
24.405439 0.23702195 6.512043 1.5585938
-3.2927525 0.47618178 6.6822739 7.7830825
-3.1933339 0.58396935 6.4787865 6.1904764
23.064754 0.55461687 6.6300173 7.7959108
23.500765 0.58838004 6.7217674 7.8290472
23.617779 0.67143178 6.7561479 4.1666665
24.20681 0.68376106 6.6433001 4
24.515259 0.45997328 6.4617047 4.46875
-3.2783842 0.97089672 6.6630907 14.198172
-3.1916389 1.0020678 6.4579549 10.590178
23.038746 0.98361182 6.6269197 13.183208
23.517864 1.0080079 6.7409821 13.034565
23.626911 1.0646232 6.7805109 7.9635415
24.198582 1.086921 6.6404347 7.0357141
24.617216 1.0629278 6.7858272 6.8000002
-3.2409215 1.3370951 6.5018783 14.049479
-3.178112 1.3126249 6.4173818 15
-2.6768014 1.4078985 6.6409416 14.525926
-2.3524716 1.5550719 6.416347 13
-0.87402749 1.3794715 6.6783452 14.708333
-0.59337711 1.3775983 6.6143789 13.916667
-0.27828708 1.4124446 6.6528468 14.375
2.1909909 1.4351422 6.6300797 14.458334
4.3050985 1.5481558 6.6107359 14.5
4.597641 1.5446614 6.61374 14.5
5.020936 1.5525782 6.6843686 15
9.1483345 1.5421612 6.4163389 12.5
9.445116 1.5135322 6.4381151 12.979167
9.8921757 1.5378782 6.4502044 14.791666
10.23633 1.5420938 6.5196733 14.774691
10.479858 1.562905 6.552948 14.790798
11.0524 1.5471163 6.6093102 14.651911
11.456899 1.5514592 6.6798501 14.611112
11.842268 1.540905 6.7388048 13.25
12.10391 1.5319786 6.7526798 11.75
12.45623 1.5268643 6.7866888 11.5
22.938715 1.2307007 6.5458908 14.995079
23.521748 1.2785127 6.7680039 14.895103
23.607544 1.4781716 6.7779756 11.833333
24.179188 1.4872491 6.6061096 10
24.495747 1.4735129 6.7700849 10
-3.4605463 1.6880852 6.5912991 14.777778
-2.9582579 1.8449111 6.6538935 15
-2.5760651 1.8004646 6.7630005 15
-2.3583825 1.6392851 6.7698183 15
3.0435266 1.8768039 6.7251763 15
3.4885278 1.7768087 6.6700215 14.666666
3.6515117 1.7495139 6.6942654 13
4.2602706 1.7371246 6.5812287 14.898148
8.3837385 1.6976181 6.78654 15
8.439333 1.7115698 6.539402 14
9.121192 1.6032397 6.4298272 13
9.3285589 1.7356782 6.4443884 13
9.7608166 1.8232483 6.6767173 14.992766
10.16469 1.8379407 6.7001715 12.5
11.078426 1.7453499 6.5737691 14.25
11.742918 1.7381891 6.6162758 11.833333
13.225634 1.999325 6.7663617 15
15.156659 1.7530299 6.5832 14.159722
15.206136 1.7915989 6.4429369 13
16.376245 1.8818116 6.578299 14.457031
16.617622 1.8541312 6.6215 14.148148
16.946848 1.8533826 6.6452298 13.833333
17.539459 1.8333105 6.663228 14.171875
17.626743 1.8058193 6.4825931 11.5
18.446484 1.7899024 6.5757637 14.691319
21.788063 1.7328475 6.5947585 9.25
22.780741 1.9592654 6.4960155 12.2
22.921251 1.7049953 6.5929112 14.834
23.339256 1.6967417 6.7652316 14.883625
23.86348 1.6966543 6.754415 14.5
24.05625 1.7546184 6.7688613 13.2125
24.511559 1.7484125 6.7786775 12
24.905584 1.7421924 6.6656747 13.444445
9.6509991 2.0766587 6.5829716 14.990741
13.182125 2.1754568 6.6683383 11
13.44004 2.1296608 6.6120033 14.986786
16.365749 2.2223639 6.6018744 14.909077
16.409573 2.2670314 6.417738 13
18.473473 2.0266023 6.4078903 12
19.883615 2.1368666 6.5840988 14.780816
20.156763 2.1095474 6.6101961 13.1875
20.580406 2.2108607 6.4769907 12.5
21.120567 2.2566257 6.4108429 13.819445
21.419632 2.1967502 6.4395881 14.768365
21.871084 2.1898594 6.4977307 14.611605
22.255266 2.2339468 6.5455418 14.313652
22.696838 2.2975521 6.6261678 13.902317
22.897284 2.1685705 6.6648908 11.35384
23.80204 2.0587821 6.7374229 14
24.062145 2.1037471 6.7512031 14
24.56196 2.0616848 6.561233 14.333333
24.805151 2.062979 6.6434264 9
9.6287842 2.4291227 6.7873406 15
13.141777 2.4931304 6.5901566 13
13.220059 2.4564335 6.5483894 13.5
15.131677 2.5621958 6.552969 15
15.470414 2.5633082 6.5853415 14
15.85479 2.5540814 6.5773926 12.333333
16.346367 2.4847493 6.631618 14.876953
19.371624 2.5580308 6.7467937 15
19.768064 2.51209 6.7182579 12.333333
21.870541 2.4155755 6.5214233 13.375
22.21843 2.4236741 6.5705051 12
22.616238 2.4164891 6.6286645 10
22.942139 2.4029207 6.699811 7
-3.3439729 -0.98105991 6.945919 4.0193176
-2.9947829 -1.0812609 7.0949297 2.1643519
-2.5496175 -1.0601103 6.9164505 1.25
-2.2699425 -1.0797464 7.1075015 0.083333336
-1.8884553 -1.0551989 7.0671411 0.625
-1.4806411 -1.0606349 7.0241208 0.40277776
-0.96965641 -1.055212 7.0073328 0.75
-0.642326 -1.0568959 7.044817 0.75
-0.10693658 -1.0450015 6.9845533 1.3333333
0.28994066 -1.0380681 6.975235 1.3125
0.70522881 -1.0339137 6.9604445 1.75
1.0489596 -1.0355763 7.098207 0.88888884
1.3836596 -1.0264091 6.9733553 1.75
1.7578347 -1.0315433 7.0350981 0.875
2.144031 -1.0290103 7.0577435 1.0833334
2.4968855 -1.0129396 7.0374999 0.58333331
3.0238981 -1.0141118 7.0537596 3
3.4459128 -0.98995602 6.9507341 1.0833334
3.7257221 -0.94566625 6.9715137 0.3425926
4.2609076 -0.98416519 7.0477324 1.75
4.6123285 -0.97855365 7.0015297 0.54320985
5.0009775 -0.97521365 6.9690056 0.75
5.3274446 -0.98149186 7.0834665 1.2708333
5.9188132 -0.97002929 6.9818497 2.3888891
6.29738 -0.97844946 7.0847511 2.3680553
6.6875191 -0.97569871 7.1095381 4.5
7.07441 -0.9757846 7.0030541 4.6666665
7.4465256 -0.97076946 7.0132804 6
7.8649979 -0.99407125 7.128046 2.5138888
8.1454153 -0.96949947 7.1145563 3.5
8.5989265 -0.93538189 7.0877247 0.6875
8.9860125 -0.92892855 6.9829221 0.89814812
9.4520235 -0.95357656 6.9806247 0.33333334
9.9084702 -0.92646891 6.871994 0.82465279
10.162506 -0.93216872 7.054338 1.34375
10.668368 -0.91977406 6.946527 0.31790122
11.129787 -0.90887499 6.936286 0.72916669
11.451641 -0.91177303 6.9798813 0.40046296
11.796024 -0.91986936 7.0297537 1.890625
12.201471 -0.91828227 6.9916315 0.56944442
12.63133 -0.91552043 6.9787798 0.64814818
12.99411 -0.92031258 7.0249596 1.3072916
13.451328 -0.9286598 7.0522871 0.5949074
13.802142 -0.92599356 6.9289322 0.9375
14.162471 -0.92514074 6.9639711 0.65046299
14.693262 -0.9250071 6.9104981 0.2109375
15.086302 -0.93522489 6.997365 0.81712961
15.445679 -0.93845892 6.9384856 0.40798607
15.786973 -0.9372279 6.9876552 0.484375
16.267336 -0.94938707 6.9139137 0.080246903
16.657207 -0.95211184 6.9752994 0.32421875
17.063852 -1.0053303 7.037838 0.067997687
17.494183 -0.95151883 7.0500927 0.5763889
17.839622 -0.94463843 7.0598707 1.8625
18.303967 -0.9391762 6.9851117 1.6736112
18.698208 -0.96105742 7.0293741 0.90972227
18.986118 -0.92342114 6.8760228 1.9922841
19.405502 -0.92987102 6.865057 1.9778163
19.725857 -0.9313271 6.966774 2.1498842
20.171356 -0.92670542 6.8916526 2.1469908
20.582365 -0.92110205 6.8761163 2.1597221
21.018032 -0.92541653 6.9419231 2.0814526
21.47595 -0.92207736 6.9850411 2.1774693
21.86162 -0.93585032 6.9857502 2.9375
22.275269 -0.9296543 7.063623 2.1840277
22.659851 -0.92656344 7.0481153 2.8541667
23.007446 -0.92691779 7.0566897 3.0850697
23.454388 -0.90969491 6.9684734 4.71875
23.864506 -0.90649557 6.9016809 4.166667
24.205759 -0.88465416 7.073205 4.0872397
24.681702 -0.90328318 6.9779119 5.8660717
24.899975 -0.90689576 7.0711522 6.75
-3.3228853 -0.68356836 7.0276184 7.9733257
10.580893 -0.76633435 7.0974507 9
17.829603 -0.59690517 6.9204202 7.0689616
18.231594 -0.49011663 7.0621142 8.1423731
18.583443 -0.61243105 7.0733271 6.3584309
19.114361 -0.56475937 7.1345253 6.8772488
19.255405 -0.57863766 7.0096703 7
23.22028 -0.75024068 6.8605351 9
24.230572 -0.62476915 7.0358758 7.3710952
24.626598 -0.52127934 6.846632 10.85
-3.3521957 -0.33061302 6.9028826 12.118567
1.70731 -0.055570085 7.0562153 6.75
17.857344 -0.3286604 6.8810978 10.841942
18.260332 -0.20267859 6.972991 12.953321
18.577606 -0.26928401 7.130713 11.555681
19.070621 -0.3481198 7.083437 10.645312
19.23283 -0.22560868 6.9360542 12.226191
19.835339 -0.025143743 6.9225507 0
20.251572 -0.11681996 7.0113039 6.0999999
20.448952 -0.25049523 7.1917939 11.333334
24.212681 -0.22860236 7.0587826 12.311972
24.657022 -0.1856585 6.8217182 12.291377
24.836655 -0.20629591 6.8306389 12
-3.3578575 0.15238845 7.05902 3.4912443
19.897181 0.005077973 6.8332214 0
23.791067 0.17990133 6.8016634 14
24.276192 0.095081441 7.0468407 1.3395834
24.513371 0.20901865 7.0372286 2.10625
24.876709 0.22288615 7.0920706 4.25
-3.3611064 0.54668069 7.0420761 8.366478
23.636133 0.41069472 6.8011456 14
24.360683 0.72218335 6.8335423 4
24.664078 0.75239784 6.8378115 4
24.880741 0.67566144 6.8188858 3.5
-3.3382132 1.0423545 7.0865517 14.533476
23.671326 0.98565298 6.804903 2.75
24.339478 1.1252797 6.847373 6.833333
24.624876 1.1273853 6.8408184 6.6714287
24.87631 1.1197103 6.8445148 6.666667
-3.4023585 1.2401917 7.0268488 14.902985
-3.182322 1.518458 7.1342044 11
-2.7004757 1.4016848 6.9920855 14.788715
-2.0787597 1.5925601 7.1712956 13
-1.6229199 1.5864458 7.1498275 15
-0.95191407 1.4203455 6.8675804 13.5
-0.64680767 1.3490179 6.8758225 13
-0.29422444 1.4047775 6.9732227 13.666666
2.1304512 1.4173771 6.9870358 14.458334
4.2424641 1.5449979 7.0123796 14.375
4.6656179 1.5221539 6.9813619 14.25
4.9644437 1.5213377 6.9007349 13
11.955765 1.5513339 6.8144464 10
12.140965 1.5781262 6.8465981 13.6875
12.662563 1.5329096 6.8348308 14.371528
13.038363 1.5490324 6.8801579 14.864584
13.334127 1.5655994 6.9691978 14.679688
13.817239 1.5451441 7.0171361 14.767216
14.212391 1.545234 7.043973 14.62471
14.52856 1.5438299 7.1005378 14.429688
15.002804 1.528343 7.1338806 12.3125
23.522646 1.4641181 6.8112774 4.5
23.6283 1.5105898 6.807416 7.1500001
24.32773 1.5861115 6.8369813 10
24.657635 1.5447073 6.8492355 9.5
24.892262 1.5464865 6.8158436 9.666666
-3.4622161 1.7133211 7.0471263 14.666667
-3.0155363 1.8103914 7.040534 14.75
-2.4787951 1.9027386 6.8590422 15
-2.203691 1.6886849 7.029707 14.921297
-1.8841062 1.6859381 7.1018267 15
-1.4083502 1.9352872 7.083015 15
-1.1726847 1.9319979 7.1142831 15
-0.01830994 1.7674263 7.0883141 14
0.030565213 1.6948383 6.9879332 14.75
1.1343147 1.952531 7.1979418 15
1.3997909 1.9576102 7.1695976 15
1.8044105 1.9732549 7.1389503 15
2.18573 1.7905446 7.0366745 15
3.0660839 1.8325055 6.9841118 14.608334
3.4872088 1.7709285 7.0261879 14.5
3.6713815 1.7593344 6.9223609 13
4.1936398 1.6595716 7.0915384 14.901621
8.3692188 1.6996958 6.9961467 14
9.5878029 1.8127092 7.0895529 14.972221
9.8572006 1.8116539 7.0331011 14.716146
10.202069 1.8210076 7.0656981 12.777778
11.717791 1.7330139 6.9351678 13.375
12.220115 1.6130688 6.8567209 9
12.705585 1.6019144 6.8982844 11
13.033129 1.7327009 6.9538341 14.333334
14.387646 1.6262717 7.1716046 7
14.781167 1.6688364 7.1490622 9
15.012626 1.7917213 7.0864644 13.71875
15.950849 1.9577563 7.0260544 13.5
16.307018 1.9064147 7.0737982 14.602268
16.669182 1.8461632 7.1008644 9.5
17.489952 1.8274456 6.8793077 13.5
18.353926 1.7163781 7.04493 13.75
18.436907 1.7693783 6.8310575 9.96875
21.727356 1.893167 6.8589573 13.187174
22.965776 1.807399 6.9804525 14.259115
23.431187 1.7668436 6.8744516 13.60937
23.806503 1.6929268 6.9086466 14.882975
24.121601 1.9021444 6.9086714 14.097006
24.443272 1.8030285 7.1285863 12
24.839111 1.7560004 7.0519981 14.020833
2.187664 2.0121455 7.1834741 15
2.6921341 2.0208135 7.1729279 15
2.9221449 2.0395021 7.0921144 15
9.5783672 2.1331799 7.1023588 14.96875
9.6195335 2.2278304 6.8895712 14
13.1541 2.1720629 6.9197788 14.890625
13.366721 2.1038561 7.0658216 14.083334
16.291397 2.2025752 7.0376749 14.665023
18.456497 2.2831285 6.8025942 15
19.763638 2.1789937 7.0783901 14.723633
20.014786 2.0809929 7.1923714 7
21.721634 2.1011178 6.8636155 13.433594
22.937702 2.2305319 6.9704971 12.16493
24.278681 2.0924847 6.8629022 14.666667
24.616405 2.0932155 6.8478088 15
24.870491 2.1328363 6.911375 12
9.5762548 2.4318433 7.1209254 15
9.6351871 2.4562624 6.9619055 15
13.16523 2.4502912 6.917984 14.652778
15.1458 2.530993 6.8775401 15
15.437911 2.5437317 7.0510559 14.5
15.825117 2.5336788 7.0005183 12
16.300049 2.4368932 7.0040321 14.743923
19.442276 2.5404935 7.1966076 15
19.799217 2.4655056 6.9052334 14.583334
21.829889 2.522732 7.0371776 14.555554
22.219318 2.540637 6.9741273 13.666666
22.624958 2.5102077 6.9524431 13.25
22.906357 2.4903359 7.0324187 12.364149
18.39908 -1.3500671 7.2400155 8
18.64537 -1.3263472 7.2697101 6.0338545
18.818865 -1.2788481 7.2678337 6
24.280359 -1.3752074 7.5498648 8
-3.406235 -0.99835604 7.4401708 4.6712317
-2.9290144 -1.0784426 7.4020305 3
-2.7552829 -1.1038073 7.5571671 2.0195312
-2.1113648 -1.0929292 7.4557934 0.15104167
-1.9036163 -1.0732489 7.4941244 0.36111107
-1.4535992 -1.0650191 7.4575963 1.5
-1.0469143 -1.0687981 7.3820891 1.25
-0.59926802 -1.0700661 7.4730549 1.375
-0.24265593 -1.0663077 7.4551148 0.5
0.17970601 -1.0612683 7.4650688 0.75
0.60177493 -1.0559587 7.4184685 0.75
0.95354974 -1.0560913 7.4669924 1.75
1.4861628 -1.0465419 7.421659 0.46296299
1.8036222 -1.0402055 7.4128857 1.25
2.1660538 -1.0295264 7.4206872 1.5555555
2.6145811 -1.0303903 7.4208956 2.8333333
3.0361936 -1.0135914 7.4721236 0.8888889
3.532691 -0.98396242 7.4617324 0.55729169
3.8520455 -0.98228747 7.4721565 0.49305555
4.2634912 -0.99493289 7.4206252 0.5
4.6194968 -0.99433213 7.3918633 0.828125
5.0042744 -0.9911077 7.383996 0.40972224
5.4065781 -0.99163735 7.370924 0.63541669
5.8255901 -0.98728919 7.4707823 0.640625
6.2858782 -0.97884631 7.3443222 2.75
6.5953927 -0.97496074 7.3360667 2.8611109
7.0174532 -0.97698629 7.3340607 2.3854165
7.4248953 -1.0076332 7.4521151 1.59375
7.8980756 -0.98293746 7.3685045 1.0668403
8.2324829 -0.96258998 7.3506236 1.2951388
8.6613235 -0.95208168 7.457303 2.5
8.9265318 -0.94688636 7.4249434 1.0208334
9.3021669 -0.93829703 7.3619661 1.4375
9.8294744 -0.95760995 7.3301697 0.2986111
10.234818 -0.93137234 7.3213959 1.375
10.507855 -0.94127953 7.4240456 1.40625
11.013227 -0.9345749 7.3639283 0.35493827
11.44224 -0.91974193 7.3192368 1.1875
11.813194 -0.92893749 7.4763718 0.70052081
12.228418 -0.93038321 7.4222155 0.68055558
12.649152 -0.93618047 7.4231663 2.375
13.017803 -0.93393242 7.4451742 0.875
13.37993 -0.93593156 7.4484873 1.5555556
13.809739 -0.94694245 7.4776325 0.66145837
14.230957 -0.94674617 7.5066838 1.625
14.508026 -0.94930059 7.5067921 2.25
15.044582 -0.93976557 7.3451586 0.6076389
15.40395 -0.9430635 7.3932986 1.125
15.804214 -0.95035917 7.4152675 1.3996912
16.141808 -0.94395435 7.455658 1.375
16.548079 -0.9565528 7.3712096 0.50925922
17.049393 -0.9533937 7.3751135 0.5486111
17.437471 -1.0096234 7.3416538 0.23958333
17.808571 -0.96485043 7.3045425 0.24305557
18.206926 -0.95546383 7.355742 0.26543212
18.650976 -0.93662053 7.3475757 0.56093746
19.055817 -0.94867122 7.2908812 0.39149305
19.411449 -0.95692623 7.3388357 0.36783853
19.803156 -0.94996524 7.3794413 0.14729081
20.169178 -0.93805218 7.3614116 0.49787807
20.636816 -0.9352057 7.4279561 0.22959535
21.006729 -0.94626576 7.416285 0.77211934
21.435177 -0.94547063 7.3813276 0.55208331
21.868557 -0.94081986 7.4440985 1.1354167
22.212723 -0.92852539 7.3341656 2.3515625
22.70945 -0.92778909 7.3316941 2.1053603
23.065369 -0.92760748 7.378274 2.390625
23.414856 -0.93801647 7.3508935 2.0646541
23.876015 -0.93006849 7.5280218 3.1875
24.272362 -0.86980045 7.2833271 4.0759583
24.652298 -0.9109143 7.3013644 4.333333
24.905434 -0.91730905 7.4585133 5
-3.3714998 -0.66573215 7.319747 8.4326897
10.642835 -0.79091579 7.4825583 9
18.344467 -0.57000583 7.2359953 7.7955728
18.60461 -0.48305327 7.236093 8.4988422
18.9014 -0.54734576 7.2439775 7.7421875
19.41469 -0.54251879 7.3841624 6.4130511
19.783951 -0.58840764 7.4026828 5.9259257
20.193441 -0.58783919 7.4366932 6.1722221
20.467661 -0.60158914 7.317245 6.5
24.220013 -0.62776339 7.4771357 6.8278956
24.590405 -0.65906656 7.4220638 10.125
-3.371181 -0.29883921 7.338728 12.894955
1.5594591 -0.18369712 7.3309226 10
1.8233106 -0.12445606 7.4113111 8.3000002
2.0890818 -0.064308852 7.492619 6.5999999
18.337502 -0.3750416 7.2216983 10.5
18.549538 -0.36227024 7.2332087 10.510417
18.807304 -0.28295958 7.2617784 12
19.383005 -0.2891193 7.2695446 10.775133
19.779497 -0.29279223 7.3735871 10.630864
20.162474 -0.31212422 7.3591218 10.37037
24.171448 -0.23850912 7.4681873 12.142764
24.502928 -0.32213035 7.3414688 12.015625
-3.3749349 0.092458442 7.308176 2.6405151
24.253433 0.048256271 7.5191822 1.0451388
24.699665 0.1440205 7.4877529 1.2708333
24.829979 0.17565824 7.38621 1.8125
-3.3770576 0.47338369 7.341363 7.2953186
-3.6061718 0.9391554 7.5177784 11.25
-3.3990128 1.0388573 7.4646249 13.997489
-3.6233077 1.2852261 7.4991307 15
-3.4788225 1.2758454 7.4793816 14.302343
-2.8233113 1.3278654 7.4801464 13
-2.697345 1.4134388 7.3510003 14.401235
-1.6632302 1.5767244 7.2164559 13
-1.2336704 1.5681623 7.2700405 13
-0.053248592 1.5805979 7.4287019 13
0.18212844 1.5887628 7.4600148 13
0.50241947 1.5954267 7.4209023 15
1.451942 1.5890917 7.5580468 14.333333
2.0612719 1.4044784 7.4212971 14.583333
4.2482028 1.5218372 7.4207816 14.740741
4.6934509 1.4968692 7.393889 13.833333
4.9431133 1.5100598 7.3339667 13
14.712479 1.5623351 7.2150369 10.166667
14.961465 1.5591409 7.2297587 13.726562
15.415188 1.5434468 7.2620516 14.40625
15.872284 1.5416881 7.3178787 13.71875
16.28998 1.5392897 7.3728127 14.205404
16.662035 1.5482401 7.4076405 13.94213
17.001663 1.5360107 7.486721 14.137985
17.319029 1.5284222 7.5070214 14.078704
17.771244 1.5188468 7.5490961 14.046875
18.085308 1.5174246 7.5578842 12
23.028959 1.5308418 7.4371057 12
-3.6454213 1.6905792 7.3593965 15
-3.5534077 1.6761897 7.3170142 14
-3.0665832 1.8269346 7.3352003 14.875
-2.0144744 1.7876598 7.2248449 13.75
-1.6423042 1.7798587 7.2383604 14.708333
-0.017792795 1.942881 7.3837433 15
0.14095166 1.9447994 7.3225965 15
0.59197736 1.9458339 7.2368503 15
0.94723934 1.7864156 7.3774786 15
1.3015906 1.7257054 7.5271025 14.9375
1.7585638 1.832298 7.4702988 15
2.19946 1.9732766 7.3452444 15
2.604454 1.9886549 7.2580338 15
3.0620348 1.7974902 7.3346047 14.666667
3.4273171 1.7559526 7.405427 14.5
4.1478062 1.7230889 7.4660215 14.74103
8.2843752 1.6984631 7.4543881 14.930556
9.5364113 1.8575391 7.3798676 14.833333
9.8526134 1.7919146 7.3906665 14.939429
10.148236 1.8078544 7.4518924 12
11.659755 1.7101623 7.3986201 12.759259
14.920906 1.656986 7.2695618 14.247396
15.272955 1.6202506 7.2673931 9
15.858248 1.8689785 7.4110165 13
16.273888 1.8848375 7.3323908 14.6654
16.673092 1.8283565 7.3197236 14.208333
16.861839 1.7770642 7.3835816 13.447916
17.442528 1.8041263 7.3998127 14.111111
18.103809 1.7354735 7.5974731 5
21.662212 1.7336481 7.3862839 12.826171
23.044037 1.80117 7.4142919 14.529193
23.489029 1.8185267 7.3292656 13.645834
23.862694 1.6616946 7.3648129 14.796726
24.082958 1.8521712 7.3479114 13.078125
24.787552 1.8197534 7.3519201 14.71875
24.843933 1.7305125 7.4173093 10.828125
-3.0562391 2.0581622 7.4032421 15
2.3451741 2.0323768 7.2132163 15
2.598763 2.0611424 7.2393169 15
2.8658099 2.0930181 7.2663984 15
4.346859 2.017451 7.420414 14
4.4969926 2.0778942 7.3934317 14.666666
4.9111834 2.2824206 7.4707594 15
6.6655073 2.0139859 7.4526567 15
8.3111753 2.0834041 7.5080519 15
8.5075407 2.1371138 7.5682058 13
9.5236588 2.1242454 7.4856615 14.96875
9.8015852 2.1190979 7.2115993 11
13.125703 2.1648059 7.3131342 14.967014
13.377526 2.0859003 7.3718758 14.166667
15.977593 2.0291719 7.4624972 13
16.258419 2.2159767 7.3230767 14.947863
19.744205 2.1698325 7.3656979 14.744647
20.091496 2.0826898 7.336627 13.5
21.738834 2.2943807 7.2895799 14.216064
22.868732 2.2009575 7.3260779 13.562848
24.794729 2.1358056 7.3169055 15
24.82501 2.0277593 7.31568 9
9.5401211 2.4505997 7.4093013 15
9.7468195 2.6310046 7.2079082 14
13.094826 2.4273393 7.3775034 14
15.474342 2.5262561 7.4563446 14.5
16.241257 2.4723511 7.4015164 14.863194
19.174475 2.5227196 7.5243807 15
19.46456 2.5220327 7.5334129 15
19.74095 2.4673085 7.510941 12
21.744551 2.4813976 7.3418169 14.25
22.284458 2.5286002 7.333087 13.5
22.686672 2.499759 7.4158134 13.125
22.882965 2.4903891 7.3189082 14.068576
-3.636869 -0.99125183 7.8931623 5
-3.4183297 -1.083185 7.7668443 4.0378008
-3.0312581 -1.1004558 7.8777704 4
-2.5585203 -1.1074717 7.9346514 2.015625
-2.1530242 -1.1021988 7.8575711 1.2916667
-1.8795662 -1.1008451 7.886425 0.049768519
-1.400939 -1.079149 7.9315834 0.328125
-0.95696509 -1.0749921 7.8369117 0.75
-0.61827904 -1.076685 7.921926 0.8125
-0.21313113 -1.0753491 7.8580408 1.3125
0.16346504 -1.0743742 7.8844504 0.83333331
0.650177 -1.0693457 7.834569 1.375
1.120868 -1.0602121 7.8628635 0.8125
1.4153376 -1.0534456 7.6600518 1.75
1.6399568 -1.0492308 7.7790828 3
2.2134459 -1.0451002 7.7496667 2
2.6464999 -1.040239 7.8630185 0.77777773
3.0438137 -1.03035 7.7582359 2.5
3.419435 -1.0078768 7.7952127 0.48032406
3.7334652 -0.97723633 7.8154545 1.0833334
4.1967831 -1.0050588 7.8236198 1.3703703
4.5453663 -1.0103149 7.804141 1.3333334
5.0123429 -1.0039636 7.7604499 0.43402779
5.4485183 -0.99808764 7.7915688 0.5
5.8451385 -0.99479246 7.8352013 0.56365746
6.2034855 -0.98783106 7.8078613 0.8125
6.5807638 -0.99351025 7.744719 0.41203704
7.0760956 -1.0092633 7.7707429 1.0902778
7.4839768 -0.99518353 7.8053341 0.18672837
7.7195506 -0.99768877 7.7754474 0.97685176
8.1319075 -0.98804551 7.8388615 0.74479169
8.5161686 -0.96613812 7.7389631 2.25
9.0697145 -0.95844829 7.8645468 0.7734375
9.4282112 -0.95373201 7.7239332 1.8125
9.8280106 -0.95750809 7.7770071 2
10.162962 -0.96830779 7.772223 0.5324074
10.68603 -0.95592719 7.7615695 0.94270831
11.0457 -0.97280705 7.8386827 1.484375
11.430902 -0.94354188 7.6984091 0.75
11.927217 -0.9528892 7.8192062 2.6111112
12.245181 -0.94928956 7.8158383 0.45833334
12.53859 -0.94298667 7.7593064 0.7962963
12.98428 -0.94864702 7.8745489 0.65277779
13.466606 -0.95141387 7.8080487 0.63194442
13.75643 -0.95436597 7.7973261 0.6171875
14.24422 -0.95607269 7.7978892 0.6796875
14.633469 -0.95723724 7.8335934 1.6875
14.944 -0.95012212 7.7453871 1.53125
15.427715 -0.95870548 7.7617941 0.71296293
15.791909 -0.95678866 7.8158269 1.7222223
16.177238 -0.96147668 7.8356657 1.3194444
16.533655 -0.95887804 7.9014196 1.75
16.926418 -0.96425509 7.7668276 1.7708333
